# .PCD v0.7 - Point Cloud Data file format
VERSION 0.7
FIELDS x y z
SIZE 4 4 4
TYPE F F F
COUNT 1 1 1
WIDTH 495
HEIGHT 1
VIEWPOINT 0 0 0 1 0 0 0
POINTS 495
DATA ascii
-0.031820491 -0.022361193 0.0081914524
-0.024489552 -0.02420265 0.0072058029
-0.015455042 -0.022510489 0.0074958783
-0.040859394 -0.010924928 0.0096420739
-0.035375576 -0.015136919 0.0059805834
-0.026097208 -0.016549731 0.002556449
-0.013665566 -0.017174423 0.0037334522
-0.0054342197 -0.013948951 0.0063922605
0.00077130646 -0.01115822 0.0096420739
-0.042442679 -0.0048160879 0.0067351228
-0.03624763 -0.0067421081 0.0027528659
-0.026513837 -0.0053557381 0.00091624632
-0.014908865 -0.0053557381 0.00068832282
-0.0047438932 -0.0053804917 0.0021898407
0.0049321679 -0.0052134879 0.006183784
0.011595676 -0.0021230194 0.0084348498
-0.042400595 0.0039985506 0.0070071244
-0.036252398 0.0065478859 0.0034458404
-0.024551636 0.0066166278 0.0010191372
-0.014908865 0.0033479929 0.00026063388
-0.005048953 0.0021046039 0.00069299835
0.0064058169 0.0025190669 0.0023830379
0.015956555 0.0041268878 0.0051812003
0.023945432 0.0078745764 0.0074105887
-0.034292348 0.013061346 0.0071284049
-0.025744032 0.015729504 0.0043456214
-0.015875947 0.01592005 0.0010718977
-0.0062051378 0.014952969 0.00023669633
0.0053998381 0.014952969 0.00031809555
0.016731011 0.015237138 0.0013226549
0.026352596 0.013782728 0.0042319116
0.033453863 0.015914211 0.0072942078
-0.02208383 0.021503875 0.0070278971
-0.014947609 0.02565678 0.0056161922
-0.004725812 0.026654998 0.0017422928
0.0044327579 0.027005911 0.00059005467
0.017971892 0.025590859 0.00068123516
0.026869038 0.023656698 0.0016568322
0.035876416 0.024799462 0.0053559509
-0.012007624 0.030122913 0.0096420739
-0.004390859 0.034617908 0.0062427162
0.0043686577 0.036601979 0.0025393288
0.01700481 0.035261668 0.0010472303
0.027843257 0.037433874 0.0029343113
0.034433909 0.034511179 0.0063416804
-0.00040265173 0.040110745 0.0096420739
0.0056488351 0.04351471 0.0067695514
0.015414217 0.046308059 0.0053926799
0.025501011 0.044859022 0.006357878
0.031481557 0.041034278 0.0081607783
0.01700481 0.050075322 0.0096420739
-0.032406174 -0.022849424 0.014730044
-0.025624037 -0.025789734 0.015444562
-0.0155602 -0.023743391 0.015444563
-0.041029729 -0.011172765 0.015007665
-0.036948096 -0.017229676 0.015444563
-0.010035709 -0.019861951 0.012543317
-0.005228356 -0.016022149 0.015589622
0.0008707568 -0.01115822 0.015444561
-0.044261243 -0.0057066791 0.015444562
0.0060036494 -0.0072082463 0.015235117
0.012421113 -0.0020948881 0.015444562
-0.043545835 0.0058657662 0.015486443
0.018334001 0.0023440979 0.014914968
0.025692713 0.0077098738 0.015444562
-0.035745773 0.013519549 0.015234702
-0.028284693 0.01828935 0.01544456
0.034637995 0.014726772 0.015065732
-0.022160105 0.022554697 0.015279379
-0.01567563 0.027503615 0.015444561
0.039531432 0.024900088 0.015030097
0.040234204 0.025494408 0.016168687
-0.012007624 0.030262558 0.01544456
-0.0057732845 0.035395797 0.015597257
0.036070611 0.03600366 0.015421801
-0.00040265173 0.040272724 0.013993938
0.0046485402 0.04460251 0.01544456
0.011786921 0.049489256 0.01544456
0.02545128 0.047984328 0.015156404
0.031486467 0.042525399 0.01544456
0.017004812 0.050632667 0.015444562
0.0228073 0.050247207 0.018345803
-0.032293271 -0.02274368 0.025255796
-0.02550425 -0.025747109 0.025598913
-0.015411831 -0.023811419 0.025598912
-0.041240975 -0.011479264 0.02559891
-0.037001736 -0.017258096 0.025598912
-0.010143492 -0.019861951 0.02559891
-0.0048258523 -0.015452174 0.025598913
0.0012139842 -0.010933019 0.024728537
-0.04443616 -0.0058268541 0.025598912
0.0061306399 -0.0070922407 0.025834514
0.012407366 -0.0020648472 0.025598913
-0.043283954 0.0058085513 0.025411703
0.01793655 0.0022915783 0.025598913
0.025679633 0.0077327089 0.025598913
-0.034939427 0.013432587 0.025805555
-0.0280426 0.017957121 0.025598912
0.034881465 0.014501601 0.025598913
-0.022130495 0.022179214 0.025598913
-0.015575225 0.027382556 0.025598913
0.03972945 0.025107322 0.02559891
0.040258549 0.02506016 0.025598913
-0.012007624 0.030219363 0.02559891
-0.0055496912 0.035297986 0.025402667
0.036053207 0.035454106 0.025598913
-0.00040265173 0.040000796 0.029950775
0.0049218247 0.044373825 0.025598917
0.011880743 0.04940455 0.025598913
0.026815526 0.047289304 0.025276551
0.031504702 0.042005461 0.026179159
0.01700481 0.050799679 0.025598912
0.0228073 0.050302047 0.025598912
-0.032252356 -0.022704877 0.035753265
-0.025567248 -0.025941785 0.035753269
-0.015257862 -0.024153307 0.035751499
-0.041347001 -0.011690184 0.035753265
-0.037146043 -0.017362405 0.035753265
-0.005300154 -0.016452203 0.035639547
0.0020021636 -0.01076027 0.035753265
-0.044485018 -0.005870604 0.035753269
0.0069308523 -0.0066656959 0.035542183
0.012549293 -0.0022941465 0.035753265
-0.043054294 0.0059490125 0.035352513
0.017973481 0.0023296657 0.035753265
0.025143677 0.0077432692 0.035841458
-0.034813847 0.013375059 0.035800036
-0.027931638 0.017823597 0.035753265
0.034807261 0.014565499 0.035753261
-0.022317855 0.021960165 0.035192158
-0.015564951 0.027359009 0.035753265
0.039689098 0.02510732 0.035753265
0.040286548 0.025072102 0.035753265
-0.012007624 0.030234067 0.035753265
-0.0061491197 0.034921285 0.035890877
0.036088917 0.035786752 0.035417594
-0.00040265173 0.04009442 0.035753265
0.0047520758 0.044502016 0.035753261
0.01221944 0.049313806 0.035753265
0.026451012 0.047780972 0.035753265
0.031498685 0.042535115 0.035753265
0.017004812 0.050505664 0.035753265
0.0228073 0.050171271 0.035753265
-0.032371715 -0.022814628 0.044356864
-0.025733415 -0.026126303 0.044456996
-0.014965716 -0.024152864 0.044456992
-0.041352648 -0.011639941 0.044456996
-0.037009321 -0.017519714 0.044565246
-0.0051380321 -0.016558083 0.044457003
0.0021621287 -0.010904692 0.044456996
-0.044660382 -0.0059893196 0.044457
0.0069685956 -0.0071024657 0.044144191
0.01264369 -0.002450255 0.044456992
-0.043341365 0.00586543 0.044871252
0.018225759 0.0020559493 0.04419139
0.025611458 0.0074698301 0.044857726
-0.035126306 0.013401396 0.044456996
-0.028204054 0.018236611 0.044456992
0.034979809 0.014404661 0.044457003
-0.022370676 0.02255195 0.044356354
-0.015743701 0.027553003 0.044456996
0.039850783 0.025107322 0.044456996
0.040317163 0.025192186 0.044456996
-0.012007624 0.030313734 0.044456996
-0.0055985316 0.035395551 0.044188362
0.036132976 0.035802018 0.044784129
-0.00040265173 0.040094055 0.047358237
0.004673956 0.044594862 0.044456996
0.011839315 0.049488544 0.044456996
0.026238941 0.047365028 0.044456992
0.031859286 0.041492593 0.044457
0.017004812 0.050616041 0.044456996
-0.033504657 -0.022162348 0.054611348
-0.025783932 -0.026158834 0.054611344
-0.014914244 -0.024210149 0.054611344
-0.0091063827 -0.020012185 0.058963209
-0.041238435 -0.012293181 0.055191595
-0.037560876 -0.017255999 0.054196887
-0.0051055001 -0.016576087 0.054420598
0.0020902809 -0.010839013 0.054611348
-0.044782422 -0.0062200767 0.054569818
0.0069488301 -0.0070287879 0.054495018
0.012760658 -0.0026222046 0.054611348
-0.043721359 0.005853313 0.05461134
0.017904321 0.0013070814 0.054611348
0.025319468 0.0067234719 0.054705169
-0.035208344 0.013494404 0.054611336
-0.028297931 0.018347463 0.054611336
0.035059676 0.014316967 0.05461134
-0.022552852 0.02248073 0.054611348
-0.015917623 0.027666671 0.054611344
0.039987259 0.029459186 0.054611344
0.040347386 0.024703329 0.054611336
-0.011370445 0.031282675 0.055578426
-0.0052305921 0.03600502 0.054615188
0.036164753 0.035756394 0.05474332
-0.00040265173 0.04011599 0.050259478
0.0045954185 0.044694111 0.05461134
0.011458734 0.049661875 0.054611348
0.026122734 0.047267184 0.054611336
0.031759985 0.04137744 0.05461134
0.01700481 0.050729983 0.054611351
-0.033505771 -0.022221847 0.064765692
-0.025798418 -0.026200704 0.064765692
-0.014987486 -0.024144094 0.064765699
-0.041110005 -0.012673017 0.064765699
-0.037453618 -0.017847218 0.06457191
-0.0052878754 -0.016730595 0.064695001
0.0021053802 -0.010856155 0.064765707
-0.044870034 -0.0062988838 0.064956836
0.0070315539 -0.0071321595 0.064657785
0.012761367 -0.0026617001 0.064765692
-0.043741714 0.0058809356 0.064819917
0.01777387 0.001053122 0.06454736
0.02541985 0.0067277378 0.064799175
-0.035323549 0.01360483 0.064765699
-0.028294411 0.018341217 0.064765692
0.035041284 0.014339638 0.064765692
-0.022548934 0.022480175 0.064765699
-0.015991239 0.027718347 0.064765692
0.039942816 0.020755455 0.06766694
0.040358875 0.025408132 0.064595036
-0.011021509 0.031608656 0.064765692
-0.004627293 0.036530834 0.064765692
0.036163166 0.035810441 0.064642899
0.0046898504 0.044600587 0.064765699
0.011498055 0.049632087 0.064765699
0.026979933 0.047227278 0.064558461
0.031560067 0.041836936 0.065180168
0.017004812 0.050743714 0.064765699
0.0228073 0.050190501 0.064765707
-0.033647578 -0.022481671 0.074920051
-0.025866929 -0.026372476 0.074920051
-0.014804023 -0.024293281 0.074920051
-0.0091063827 -0.020058885 0.079271913
-0.041181739 -0.012531274 0.075315669
-0.037754096 -0.017648723 0.074935868
-0.0050905696 -0.016593628 0.074778594
0.0021531126 -0.010892042 0.074920043
-0.044716112 -0.0061729234 0.075044848
0.0071922676 -0.0070589669 0.074920043
0.012803525 -0.0026997509 0.074920043
-0.043496139 0.0057199253 0.074920058
0.017889699 0.0012543593 0.074920043
0.02537768 0.0064947507 0.074920051
-0.035250276 0.013535812 0.074920051
-0.028276755 0.018339893 0.074920043
0.035220262 0.014115997 0.074920051
-0.022745391 0.022666706 0.074920051
-0.01616198 0.027707832 0.075083993
0.039868195 0.025729017 0.074712813
0.040377684 0.024759574 0.075005375
-0.01137512 0.031370662 0.073952965
-0.0049977666 0.036065765 0.075011201
0.036009233 0.035815842 0.074953683
0.0049402555 0.04437273 0.074920043
0.011832058 0.049459122 0.074920043
0.026101036 0.047690261 0.075149089
0.031482548 0.042294331 0.074524425
0.01700481 0.050655067 0.074920043
0.0228073 0.050097756 0.074920043
-0.03348707 -0.022114696 0.085074402
-0.026086008 -0.026389819 0.085376605
-0.014744407 -0.024349866 0.085074395
-0.0091063827 -0.020011619 0.08507441
-0.041198462 -0.012741071 0.085074402
-0.03728731 -0.017765688 0.085461795
-0.0042635151 -0.016203964 0.085074395
0.0023160949 -0.011013662 0.08507441
-0.044875957 -0.0061740791 0.08507441
0.007221669 -0.0070827287 0.08507441
0.012862765 -0.0027819823 0.085074395
-0.043615203 0.0058423206 0.085074402
0.017919511 0.00099820946 0.084874094
0.025471266 0.006431093 0.085074402
-0.035829592 0.013596658 0.085037641
-0.028383905 0.018468482 0.08507441
0.03518996 0.014156765 0.085074402
-0.022794066 0.022697901 0.085074395
-0.016209438 0.027900934 0.08507441
0.039903644 0.02510732 0.08507441
0.040398084 0.025090218 0.08507441
-0.01111527 0.031705268 0.08507441
-0.004683645 0.036438759 0.085052855
0.035965666 0.03587405 0.085281327
0.0049977275 0.044307273 0.085074402
0.011938716 0.049354874 0.085074395
0.02593351 0.047395382 0.085048504
0.031770773 0.041384462 0.085074395
0.017004812 0.050565988 0.08507441
-0.033470809 -0.022874378 0.095563516
-0.02578588 -0.026759492 0.094999708
-0.014776319 -0.024319539 0.095228754
-0.041288696 -0.012817394 0.095228754
-0.037710413 -0.018166449 0.095228761
-0.004950067 -0.016757149 0.095228761
0.0023847483 -0.011073442 0.095228747
-0.04491749 -0.0061645485 0.095228747
0.0070437072 -0.0075024972 0.095228761
0.013151357 -0.0029474017 0.095591404
-0.04364102 0.0058487975 0.095422849
0.018384386 0.0011452213 0.094648503
0.025473613 0.0064189765 0.095228747
-0.03561921 0.013704229 0.095302746
-0.028602794 0.018443398 0.095389493
0.035309818 0.014077264 0.095228761
-0.022749167 0.022642359 0.095228761
-0.016278338 0.027795481 0.095323101
0.039800316 0.029459186 0.095228747
0.040349882 0.023906365 0.095404491
-0.011387483 0.031674054 0.094607063
-0.0055517787 0.035957955 0.095380165
0.036051001 0.035447117 0.095228761
-0.00040265173 0.040039789 0.096679375
0.0048730662 0.044398334 0.095228754
0.011944988 0.049433809 0.095228754
0.025961053 0.047344837 0.095137089
0.031729333 0.041349642 0.095228747
0.01700481 0.050534405 0.095228761
-0.033199973 -0.023279034 0.10511936
-0.025436375 -0.027021194 0.10560627
-0.014802022 -0.024299523 0.10538311
-0.0091063827 -0.020042673 0.10828435
-0.0413188 -0.012806995 0.1053831
-0.037571598 -0.018040653 0.10538311
-0.0052162521 -0.016801262 0.1050095
0.0021811277 -0.010908775 0.10538311
-0.045207784 -0.0063147582 0.1053831
0.0072303722 -0.0070849424 0.1053831
0.013314751 -0.0025565468 0.10509298
-0.04367635 0.0058065965 0.1054315
0.018085927 0.0010528077 0.10606324
0.025492584 0.006395184 0.10538311
-0.035650261 0.013661401 0.10518263
-0.02835224 0.018374553 0.1053831
0.035376977 0.014033644 0.10538311
-0.022503998 0.02244786 0.10538311
-0.01587205 0.027635327 0.10538312
0.039789796 0.029459186 0.1053831
0.040424529 0.0239498 0.10538311
-0.012007624 0.030568957 0.1053831
-0.0061233146 0.035179749 0.10538311
0.036027223 0.03570997 0.10536168
-0.00040265173 0.040072098 0.10538311
0.004767125 0.044495605 0.10538311
0.011867384 0.049491625 0.1053831
0.025735477 0.04777284 0.10520178
0.031492166 0.042206809 0.10574576
0.017004812 0.050559528 0.1053831
-0.033625346 -0.022414602 0.11553746
-0.025972206 -0.026543593 0.11553744
-0.014769122 -0.024326615 0.11553746
-0.0091063827 -0.020043045 0.11263621
-0.041336112 -0.012818821 0.11553745
-0.03752435 -0.017928837 0.11585822
-0.0048860167 -0.016531466 0.11587314
0.0022706762 -0.010979918 0.11553745
-0.045161799 -0.0063221515 0.11553745
0.0071007875 -0.0070092152 0.11553743
0.012668073 -0.0024847891 0.11553745
-0.04336315 0.0059801098 0.11549592
0.017778844 0.001449811 0.11553745
0.02528215 0.0065263934 0.11553746
-0.035235997 0.013515954 0.11553744
-0.02827695 0.018323712 0.11553743
0.035446938 0.013946149 0.11553746
-0.022559348 0.022489991 0.11553746
-0.015764305 0.027555123 0.11553743
0.039657328 0.029459186 0.11553745
0.040350888 0.023626989 0.1155751
-0.012007624 0.030408205 0.11553745
-0.0054235598 0.035646148 0.11569863
0.035904676 0.035515223 0.11530115
-0.00040265173 0.040038787 0.11118559
0.0048973691 0.044390149 0.11553745
0.01196191 0.049405873 0.11553745
0.025962301 0.047350381 0.1155789
0.031682685 0.041291475 0.11553745
0.01700481 0.050498083 0.11553745
-0.033095405 -0.023170231 0.12595555
-0.025437044 -0.026846625 0.12546864
-0.014703006 -0.024389759 0.12569182
-0.0091063827 -0.02005787 0.12714243
-0.041187547 -0.01271196 0.12569182
-0.03749891 -0.017819544 0.12583326
-0.004815585 -0.016496448 0.12537773
0.0021978568 -0.010915122 0.12569182
-0.045129173 -0.0062800273 0.12569182
0.0069763525 -0.0070994529 0.12583132
0.012730313 -0.0025673988 0.12569182
-0.043340549 0.0060818894 0.12547784
0.017706377 0.0013187185 0.12609713
0.025270879 0.006541024 0.1256918
-0.035424195 0.013722845 0.12569182
-0.028529799 0.018388983 0.12568922
0.035368223 0.014038235 0.12569182
-0.022527758 0.022459617 0.12569182
-0.015782604 0.027576566 0.12569182
0.039578639 0.029459186 0.12569182
0.040313993 0.023508416 0.12559137
-0.012007624 0.03037568 0.12569182
-0.0051522283 0.035683554 0.12569182
0.035931043 0.035611939 0.12587227
0.0050621037 0.044261415 0.12569183
0.011953106 0.049374968 0.12569182
0.025805218 0.047540892 0.12548342
0.031677153 0.041284151 0.12569182
0.017004812 0.050503328 0.12569183
-0.033065323 -0.023642218 0.13439552
-0.025397981 -0.026772035 0.13480018
-0.014970547 -0.024398118 0.1346595
-0.0091063827 -0.020099372 0.13294491
-0.041376278 -0.012856985 0.13439554
-0.03777783 -0.018008363 0.13484758
-0.004943545 -0.016432088 0.13484956
0.0019505683 -0.01070012 0.13439554
-0.04497055 -0.0064475001 0.13479295
0.0069852611 -0.0067028538 0.13475171
0.01275367 -0.0025930414 0.13439555
-0.043305106 0.006080294 0.13437319
0.017853612 0.0011164442 0.13444987
0.02553859 0.0066342717 0.13465293
-0.035380028 0.013667637 0.13439554
-0.028483987 0.01833958 0.13417022
0.035378445 0.014034692 0.13439552
-0.022352675 0.022528369 0.13466862
-0.015787862 0.027568609 0.13439554
0.04040774 0.025253035 0.13463302
-0.012007624 0.030454373 0.13439554
-0.0053592003 0.035555482 0.13454778
0.036151581 0.035798892 0.13449992
0.0053116339 0.044307131 0.13481802
0.012510718 0.049519904 0.13536611
0.025573192 0.047721181 0.13409147
0.031620812 0.041879252 0.13481
0.017367465 0.050472811 0.13403288
-0.032659475 -0.022343945 0.14140797
-0.024799794 -0.024166873 0.14281268
-0.016162816 -0.022966431 0.14199507
-0.041007325 -0.011136606 0.1417013
-0.035396837 -0.015465434 0.14404149
-0.025873423 -0.015969142 0.14828719
-0.014584992 -0.01618371 0.14654601
-0.0057469672 -0.013832647 0.14302289
0.0003887862 -0.01115822 0.14019802
-0.042832755 -0.0049497145 0.1433233
-0.035152316 -0.0057571824 0.1481865
-0.028689774 -0.0060810465 0.14972287
-0.013992808 -0.0063028997 0.14919017
-0.0044915443 -0.0052857255 0.14740048
0.005000494 -0.0049364949 0.14352389
0.011899806 -0.0019150854 0.14098993
-0.042476345 0.0041668597 0.14287809
-0.035499141 0.0055204602 0.1478661
-0.026513843 0.0057656965 0.14985834
-0.014455737 0.0057599428 0.1491155
-0.0047915643 0.0048290924 0.14909925
0.0058219004 0.0047794394 0.14855917
0.01577176 0.004417852 0.14450356
0.024471264 0.0079773683 0.14264192
-0.034400512 0.012915339 0.14297421
-0.025780017 0.015401076 0.14639895
-0.015106868 0.014863444 0.14881836
-0.0042503527 0.014811169 0.14873661
0.0054703965 0.015433099 0.14898114
0.015433548 0.01600551 0.14872171
0.026037518 0.014973273 0.14736213
0.033942182 0.015418514 0.14321075
-0.021895975 0.0213298 0.1426376
-0.014469039 0.025428806 0.1439928
-0.0042894413 0.025259648 0.14825727
0.0053998381 0.025107317 0.14914039
0.01555419 0.02510732 0.14929537
0.024983231 0.023656698 0.14963923
0.035457283 0.02494573 0.14639881
0.040224683 0.025169313 0.14023238
-0.0038873185 0.034156524 0.14311163
0.0048099793 0.035791818 0.14737757
0.014466221 0.034173705 0.14967632
0.028611658 0.03744141 0.14916998
0.034029834 0.034770571 0.14456494
0.0062103211 0.042795096 0.1425107
0.015232898 0.046255052 0.14523648
0.025921972 0.044734355 0.14493799
0.031456731 0.040988006 0.14160994
-0.022161976 -0.01115822 0.15011956
-0.023249943 -0.0049930802 0.15031636
-0.017810106 -0.0024544895 0.15004879
-0.024192845 0.0042183669 0.15019149
-0.017810106 0.00044675171 0.15000954
0.027159162 0.028008562 0.15037015
0.017730121 0.037437603 0.15026915
0.024879616 0.034847211 0.15054436
0.018455431 0.041064158 0.15058847
0.0228073 0.041064158 0.15052125
