# .PCD v0.7 - Point Cloud Data file format
VERSION 0.7
FIELDS x y z
SIZE 4 4 4
TYPE F F F
COUNT 1 1 1
WIDTH 332
HEIGHT 1
VIEWPOINT 0 0 0 1 0 0 0
POINTS 332
DATA ascii
-0.045015737 -0.043496884 -0.0012919139
-0.032832179 -0.042253137 -0.0012867656
-0.050078742 -0.034732573 -0.00077127293
-0.046267558 -0.035558995 -0.002174709
-0.033550322 -0.036385417 -0.0037701428
-0.025194457 -0.035288922 -0.0013863562
-0.050078742 -0.029774047 -0.00031315535
-0.0454023 -0.026174366 -0.0021808213
-0.033550322 -0.026468363 -0.0054920726
-0.023633268 -0.026468363 -0.0041609947
-0.014977249 -0.024694873 -0.0013370344
-0.042202074 -0.016161872 -0.0014792043
-0.033550322 -0.016551308 -0.0051669776
-0.023633268 -0.016551308 -0.0060296617
-0.011927314 -0.018204153 -0.0029448532
-0.0038689631 -0.014832147 -0.001279353
0.0028122067 -0.010307401 -0.0013197511
-0.033718299 -0.0069776266 -0.0015796104
-0.026113307 -0.0040478855 -0.0026158728
-0.013716213 -0.0099399388 -0.0058759302
-0.0037991665 -0.0066342577 -0.0048029367
0.0069597275 -0.0070289867 -0.0019181044
0.016128892 -0.0034703314 -0.0013541555
0.024295017 -0.00024320683 -0.0011254674
-0.021260362 0.0028680675 -0.0013716687
-0.012288835 0.0089788064 -0.0013197511
-0.0037991665 0.0032828003 -0.0055104345
0.0061178878 0.0065884814 -0.0055575669
0.016034942 0.0065884814 -0.0053063873
0.026778417 0.0039032586 -0.0028137323
0.03518527 0.0051890966 -0.0020848587
0.046084397 0.0072071855 -0.0013866851
0.05517615 0.0096422257 -0.0013758406
0.062314518 0.0098941624 -0.00019992888
-0.010410532 0.010174021 -0.0013197511
-0.0040268935 0.014100706 -0.0010685201
0.0050783805 0.018150024 -0.0014640416
0.016034942 0.016505539 -0.0045631491
0.025951996 0.016505539 -0.0053748563
0.035869047 0.016505539 -0.0055274293
0.045786105 0.016505539 -0.0052182004
0.056805056 0.014518624 -0.0033883653
0.066635288 0.013325972 -0.0016245916
0.075054601 0.016177647 -0.00115383
0.0094235763 0.020345032 -0.0013197511
0.017011216 0.022917137 -0.0013248995
0.025650565 0.025773626 -0.001356688
0.035869047 0.027999673 -0.0016665623
0.043210335 0.029728264 -0.0016723052
0.055703156 0.029728264 -0.002694793
0.065620206 0.029728264 -0.0026669428
0.076501623 0.029162709 -0.0013284925
0.080571823 0.023116902 -0.0013197511
0.045786105 0.030699175 -0.0013197511
0.055703159 0.032527372 -0.00093277672
0.065620206 0.032654099 -0.0010743104
0.073333465 0.031486124 -0.0010167187
-0.053384427 -0.06192518 0.0091433786
-0.043581743 -0.063906766 0.0086075868
-0.054967374 -0.055646669 0.0073564812
-0.04346738 -0.058443833 0.0051321415
-0.034935489 -0.055312648 0.0072527071
-0.056621786 -0.046569631 0.0058257217
-0.043467376 -0.049608156 0.0007025376
-0.031443205 -0.047274824 0.0030065037
-0.026139533 -0.044388227 0.0062155225
-0.056005523 -0.035297003 0.0048007164
-0.022147907 -0.037808038 0.0039083748
-0.017012322 -0.033646144 0.0058963681
-0.053408604 -0.026015915 0.0050280625
-0.012576943 -0.027597422 0.0039930586
-0.0065481043 -0.023164107 0.0059065223
-0.050640274 -0.01810289 0.0068163001
-0.046504948 -0.014929404 0.0037101675
-0.0025030244 -0.018464001 0.0041348701
0.0053571071 -0.014149503 0.0057484661
0.013831154 -0.010786682 0.0074954107
-0.042058803 -0.0075469036 0.0057778857
-0.03549939 -0.0023898541 0.0043307119
0.0085665043 -0.0099253934 0.0015254784
0.016186906 -0.0079877125 0.0042071575
0.025644409 -0.0042193281 0.0047867536
0.034855634 -0.0012839907 0.005660546
0.042938262 -0.00012843311 0.0082749305
-0.031489078 0.0024313545 0.0063354694
-0.024386005 0.0065597459 0.0047449786
-0.015779106 0.0098941624 0.0014775197
0.03834831 0.0015955605 0.0024024565
0.045903422 0.0026146199 0.004100909
0.055558059 0.0045854547 0.0047113965
0.065406807 0.0064926716 0.0051322854
0.07460738 0.0084492266 0.0060327714
0.08253403 0.0097350031 0.0083001237
-0.020327583 0.010963045 0.0069444627
-0.013300898 0.014510985 0.0057382002
-0.0048941839 0.018509168 0.0043632896
0.0016039312 0.019811213 0.0013337135
0.077028073 0.012079676 0.0022215226
0.085664086 0.014027698 0.0050096754
0.093257338 0.01793883 0.0072290343
-0.0011414692 0.022474781 0.0079581384
0.0062119151 0.024393776 0.0051646223
0.01575057 0.027417632 0.0042747767
0.025515771 0.029469956 0.002154903
0.032563366 0.029728264 0.00016954541
0.085613124 0.028405992 0.0015483946
0.09435381 0.026717653 0.00646435
0.017687786 0.030830853 0.0085973069
0.02637089 0.032700401 0.0066553541
0.036281019 0.034413919 0.005186867
0.045729626 0.035692673 0.0043905326
0.055918057 0.037894383 0.0058006151
0.065620206 0.038101412 0.005195206
0.075659499 0.037324425 0.0051905853
0.085342661 0.034912694 0.0053994353
0.093229704 0.032775052 0.0082865264
-0.050428197 -0.081421286 0.018514358
-0.046635248 -0.082444191 0.01838585
-0.052107491 -0.075162128 0.016781036
-0.043764312 -0.075371422 0.016224956
-0.054855678 -0.065260142 0.0155171
-0.041536059 -0.068489604 0.014484176
-0.038020935 -0.063545719 0.016586043
-0.060140446 -0.051260993 0.018514358
-0.058608178 -0.055940863 0.015831504
-0.032731306 -0.056226686 0.015344562
-0.029819041 -0.052913837 0.016861517
-0.060767803 -0.045551177 0.016410742
-0.059972491 -0.047491234 0.011458965
-0.02413556 -0.04565024 0.015208675
-0.060730357 -0.037211835 0.016861517
-0.059882473 -0.034427676 0.01455301
-0.01542482 -0.035133459 0.015023688
-0.057117525 -0.02610717 0.014851422
-0.010442859 -0.029742472 0.012018614
-0.0048331427 -0.025050368 0.014956855
-0.05218469 -0.01641741 0.015058312
-0.049587402 -0.013245627 0.011902988
0.0053539644 -0.017368685 0.015082609
0.014615314 -0.01231583 0.015438028
-0.044469219 -0.0058809263 0.014966797
-0.038838997 -2.2888184e-05 0.015208675
0.019161757 -0.0098674176 0.01232147
0.025555311 -0.0075285211 0.01510737
0.036069546 -0.0035636672 0.014996699
0.046266925 -0.00074755156 0.014686282
0.050787009 -2.2888184e-05 0.018514358
-0.03318581 0.0047118138 0.01474392
-0.026939267 0.0097501818 0.014359148
0.049091779 0.00034302473 0.011902988
0.055703156 0.0011625753 0.015208675
0.065745167 0.0031868191 0.015484147
0.075686499 0.0052955411 0.015329044
0.085223228 0.0081999497 0.015984032
-0.022691101 0.012725699 0.015158646
-0.014080378 0.017782833 0.01526413
-0.0090787038 0.019811213 0.011902988
0.088759996 0.010982573 0.011902988
0.095314704 0.015228824 0.015859611
-0.010410532 0.020144373 0.018514358
-0.0035632483 0.022830894 0.015208675
0.005382142 0.027402315 0.015835498
0.011634378 0.029728264 0.012658291
0.099014729 0.026539164 0.015080593
0.10002549 0.024769746 0.015208676
0.016985649 0.032170169 0.015710076
0.026128916 0.035365086 0.015062975
0.035067491 0.037868708 0.014443268
0.044622466 0.03960887 0.013443688
0.085765615 0.039073847 0.015969336
0.094313025 0.034371156 0.016070405
0.046447244 0.040416472 0.017192086
0.055703156 0.040814281 0.015208675
0.065620214 0.041520357 0.015208675
0.075625218 0.041187812 0.016291851
0.081597686 0.04043005 0.017412465
-0.050200246 -0.081168346 0.020394821
-0.046862934 -0.081854127 0.021196544
-0.051562328 -0.074674286 0.022261694
-0.044739548 -0.074995011 0.023321515
-0.053248059 -0.06473425 0.024356417
-0.043881867 -0.065763749 0.026097907
-0.038210645 -0.06269186 0.022795156
-0.060086053 -0.051260993 0.020167202
-0.056959271 -0.055747047 0.025421992
-0.043889984 -0.058485884 0.029031111
-0.033731572 -0.055738155 0.025096748
-0.029071823 -0.050995708 0.023142317
-0.060521055 -0.045476045 0.02182004
-0.05906447 -0.045475699 0.026727768
-0.030252632 -0.049184687 0.028810995
-0.025743257 -0.044989422 0.025212154
-0.060586654 -0.037831649 0.021200228
-0.057783999 -0.034962077 0.025420893
-0.021589445 -0.038496945 0.026667383
-0.01630317 -0.033930235 0.024980223
-0.055130642 -0.025642941 0.025216494
-0.011799649 -0.028490812 0.026193118
-0.0055535315 -0.023711015 0.024932692
0.0011593625 -0.020405069 0.021820046
-0.051654622 -0.01712732 0.024849819
-0.04796413 -0.012647573 0.026270716
-0.0015486195 -0.01915524 0.028023845
0.0052813445 -0.016081233 0.025525751
0.013077786 -0.011953405 0.024528803
-0.043329675 -0.0059179864 0.025086297
-0.03789613 -0.0011224394 0.02675272
0.017234907 -0.0090157567 0.026126584
0.024983548 -0.0061833262 0.025534507
0.034757379 -0.0024998912 0.025519228
0.043519899 -0.00066788495 0.023611775
-0.033282496 0.0039510699 0.025417462
-0.027739514 0.0086750612 0.026061889
0.039174728 0.00011914968 0.028431408
0.046078544 0.0020064414 0.026924862
0.054675061 0.0029370263 0.025595779
0.064915948 0.0045589767 0.02509694
0.074652612 0.0067629404 0.024881199
0.083872765 0.0085033458 0.022812257
-0.023100708 0.012206999 0.025064889
-0.014836371 0.016680175 0.025288338
-0.0079333223 0.0193734 0.026976833
0.078045517 0.011497892 0.029005537
0.085727103 0.013211382 0.027364906
0.093793824 0.016134359 0.023956444
-0.0034738407 0.022069128 0.025176417
0.0050768638 0.026227221 0.025480026
0.012764133 0.029243423 0.026268844
0.088759996 0.028901845 0.029652387
0.095490299 0.025604939 0.025146252
0.01694206 0.031197824 0.024438048
0.025079476 0.033790428 0.02510502
0.034914535 0.036610346 0.025327789
0.045048051 0.038481697 0.025185764
0.054675762 0.038589656 0.026137169
0.064359836 0.039143637 0.02722807
0.075276509 0.03873023 0.026446525
0.084969677 0.036481999 0.0250572
0.093050689 0.033212163 0.02338527
0.055467039 0.040288497 0.022056168
0.06520699 0.04069607 0.02326628
0.074042298 0.040790789 0.02155765
0.080495782 0.040338233 0.020167202
-0.052693892 -0.053337559 0.030815644
-0.044232391 -0.053824965 0.031089462
-0.036361728 -0.052921433 0.030906053
-0.054182339 -0.045262758 0.0317773
-0.044357281 -0.045264378 0.03401437
-0.034017917 -0.045523398 0.033358861
-0.02815396 -0.042992447 0.030747216
-0.0525731 -0.036049571 0.031510584
-0.044771954 -0.035444681 0.034702472
-0.034228064 -0.035041634 0.0359818
-0.024918621 -0.034998212 0.032694735
-0.018419867 -0.031672589 0.030713847
-0.051141031 -0.025319016 0.031107821
-0.044164315 -0.025684364 0.035108551
-0.034672931 -0.025638204 0.038474903
-0.024476027 -0.025680827 0.03664729
-0.014883951 -0.024939155 0.033082224
-0.0078505576 -0.021736514 0.030634353
-0.050346486 -0.019410562 0.030419894
-0.044433229 -0.015873803 0.033363633
-0.034896869 -0.015239792 0.037832245
-0.02433477 -0.016251856 0.039252706
-0.014172542 -0.015819436 0.037362292
-0.0048549762 -0.015544646 0.033874091
0.0033749568 -0.012900202 0.031545091
-0.041435 -0.0086553497 0.0313549
-0.034393217 -0.0051322412 0.033800937
-0.02586326 -0.003991859 0.037903689
-0.014046789 -0.0049814144 0.039580043
-0.004057616 -0.0077763265 0.038148109
0.005558297 -0.0055436199 0.035832573
0.014638723 -0.0045548971 0.033076435
0.024649054 -0.0020357461 0.031716637
0.032148756 -0.00034358801 0.030400265
-0.031291306 0.0020286255 0.031111866
-0.024305629 0.0052426001 0.033568218
-0.014790036 0.0059194234 0.036942117
-0.0061490722 0.0077685923 0.038491569
0.0075870836 0.0030492593 0.039250348
0.015735731 0.0047600688 0.037701007
0.025341325 0.0053612259 0.035933532
0.035065357 0.0051143956 0.033696815
0.044283383 0.0067522302 0.032128379
0.054977346 0.0078732828 0.032048248
0.06376224 0.0083079413 0.031387452
0.070452236 0.0098941624 0.030053869
-0.021274736 0.011165704 0.030481424
-0.0139768 0.0132456 0.032249402
-0.0045854673 0.015622675 0.034406364
0.0047549256 0.016532606 0.037462112
0.015634257 0.017077113 0.038972337
0.025204139 0.015410362 0.038591184
0.034815352 0.015746277 0.037238356
0.045039594 0.015185661 0.035913277
0.054981969 0.015427087 0.035904653
0.064968802 0.015272291 0.034268226
0.074503109 0.015667493 0.031919636
0.084153645 0.018237907 0.030839439
-0.0014548091 0.021146901 0.030477211
0.0059112906 0.023221089 0.032716319
0.01548168 0.025616279 0.034070231
0.024899572 0.025797833 0.036220614
0.035033744 0.025818091 0.036856309
0.045118283 0.025795905 0.036466639
0.054895487 0.025529642 0.036556628
0.064902261 0.025426943 0.036552139
0.07488241 0.025257999 0.034914076
0.084501661 0.025563555 0.032070525
0.090077296 0.022290483 0.030084252
0.019340627 0.030434981 0.030084252
0.025883401 0.031778559 0.031999204
0.035364795 0.033333071 0.03268759
0.044756219 0.033915646 0.032526597
0.055087641 0.033990163 0.032793082
0.064970918 0.03463554 0.032835227
0.074635774 0.034217019 0.032681976
0.082783952 0.032473993 0.030697048
-0.021496933 -0.011749046 0.040031578
-0.018330587 -0.011046082 0.040001303
-0.021673221 -0.0063942834 0.040271562
-0.014589186 -0.0048297392 0.040254261
-0.0049704569 -0.0026564924 0.040409822
0.0019974315 -0.00083745597 0.040144552
-0.010410532 0.00080652535 0.040001303
-0.0037270053 0.0042182561 0.040375948
0.0050387196 0.0058612931 0.040517002
0.0121643 0.0084237773 0.040110786
0.0065570762 0.011649703 0.040059879
0.014009679 0.013246882 0.040075701
