# .PCD v0.7 - Point Cloud Data file format
VERSION 0.7
FIELDS x y z rgb imX imY
SIZE 4 4 4 4 4 4
TYPE F F F F F F
COUNT 1 1 1 1 1 1
WIDTH 523
HEIGHT 1
VIEWPOINT 0 0 0 1 0 0 0
POINTS 523
DATA ascii
0.015502569 0.64215392 -0.090505987 7.5549844e-39 333.76926 320.38461
0.024752684 0.64162493 -0.090560541 5.3469612e-39 342 320.5
0.033106439 0.6455 -0.09054213 5.8068393e-39 349.25 320
-0.023592103 0.71899998 -0.093828119 7.3742071e-39 301.28574 314.42859
-0.013828539 0.71700001 -0.096799776 5.1633056e-39 309 317
0.0075428397 0.71700001 -0.090514079 7.9122384e-39 326 312
0.016982786 0.71749997 -0.0905772 8.5496933e-39 333.5 312
0.024504479 0.71675003 -0.091110758 8.4657639e-39 339.5 312.5
0.032966174 0.71563637 -0.090911925 8.4636199e-39 346.27274 312.45456
-0.026510401 0.72000003 -0.094680004 7.2852568e-39 299 315
-0.017673599 0.72000003 -0.0959424 5.3455347e-39 306 316
-0.011369866 0.64849997 -0.084870726 5.4377289e-39 310 314.64288
-0.0048368215 0.64823735 -0.084587857 5.9883719e-39 315.74576 314.42374
0.0043213218 0.64547026 -0.084925219 5.8039877e-39 323.82352 315.04413
0.014248861 0.64245415 -0.085333608 5.8021898e-39 332.65152 315.7576
0.024576861 0.6420508 -0.0864508 6.0805746e-39 341.83051 316.7966
0.035288822 0.64398497 -0.085375272 6.0776949e-39 351.25372 315.61194
0.044959661 0.64366204 -0.084253855 6.3539146e-39 359.83786 314.66217
0.054905258 0.64561093 -0.084894903 5.6188691e-39 368.5 315
0.063969374 0.64744419 -0.084398277 5.252253e-39 376.34924 314.34921
-0.031149717 0.65799999 -0.080758527 6.914668e-39 293 310
-0.024937514 0.65549999 -0.082302965 6.4515263e-39 298.30557 311.61111
-0.01559774 0.65157503 -0.082625531 5.805431e-39 306.35001 312.32501
-0.0091173323 0.64999998 -0.081486166 6.8163151e-39 312 311.5
0.069519661 0.64999998 -0.081486166 5.1578994e-39 381 311.5
0.074397229 0.65184844 -0.082045421 5.0682261e-39 385.09091 311.7879
0.082068928 0.6534999 -0.080636017 5.0711016e-39 391.625 310.375
-0.0016808622 0.71900004 -0.087404832 8.4589312e-39 318.66669 309.33334
0.0049311044 0.71833324 -0.088687539 9.9340416e-39 323.91669 310.41669
0.015328809 0.71850002 -0.08881335 8.8216096e-39 332.16669 310.5
0.025053984 0.71824133 -0.087673634 9.2858164e-39 339.89655 309.6207
0.034374282 0.71705228 -0.086879037 8.9242351e-39 347.3421 309.10526
0.043655641 0.71760869 -0.087307096 8.5518611e-39 354.69565 309.3913
0.051056184 0.71899998 -0.088245258 8.9235037e-39 360.5 310
-0.024516676 0.72789466 -0.081881218 8.0915948e-39 300.78949 304.1579
-0.014118561 0.72605878 -0.08364132 9.1972123e-39 308.91177 305.70587
-0.0049509052 0.72489458 -0.083977975 1.0485416e-38 316.10526 306.07895
0.0044954852 0.72375441 -0.083831452 9.8360979e-39 323.54385 306.07019
0.014492468 0.72338879 -0.084171183 9.4666091e-39 331.42593 306.37036
0.02440436 0.72372097 -0.08276815 9.0967588e-39 339.23254 305.23254
0.035492789 0.72478569 -0.082596928 8.8277095e-39 347.92859 305
0.045349125 0.72352266 -0.082824796 8.6386561e-39 355.75 305.29547
0.055196363 0.72301644 -0.08407709 8.7301329e-39 363.54095 306.32785
0.065168038 0.72278845 -0.083345592 8.7294168e-39 371.4231 305.76926
0.074558966 0.72351623 -0.082085967 8.8230544e-39 378.77417 304.70966
0.082283929 0.722 -0.081018023 8.6429721e-39 385 304
-0.021758866 0.73000002 -0.080635801 8.4557054e-39 303 303
-0.014719233 0.73000002 -0.080635794 9.5616802e-39 308.5 303
-0.0057597002 0.73000002 -0.080635801 1.0943858e-38 315.5 303
0.014719234 0.73000002 -0.080635801 8.7297727e-39 331.5 303
0.033918232 0.73000002 -0.080635801 9.0985525e-39 346.5 303
-0.054640878 0.74199998 -0.080660343 1.0414866e-38 278 302
-0.0056835273 0.64822227 -0.079179563 7.5456139e-39 315 309.66666
0.05648144 0.64749998 -0.079185791 7.9082825e-39 369.75 309.75
0.064197354 0.64846158 -0.079150461 7.087507e-39 376.46155 309.61539
-0.03337786 0.65793335 -0.076711327 6.8184885e-39 291.06668 306.50003
-0.025727814 0.65599996 -0.077033654 6.355344e-39 297.63638 306.97729
-0.015562815 0.65204358 -0.078186303 6.9052681e-39 306.3913 308.3913
-0.0091173323 0.64999998 -0.079206832 6.6294155e-39 312 309.5
0.067752436 0.6506924 -0.077666193 7.7282059e-39 379.38464 308.07693
0.075203344 0.65306973 -0.076609708 6.7187343e-39 385.67441 306.90698
0.084846795 0.65641516 -0.076085947 5.5266805e-39 393.71698 306.11322
0.090895139 0.65900004 -0.075104035 5.8958302e-39 398.66669 305
-0.043863885 0.66529995 -0.072900996 7.2798338e-39 282.39999 302.5
-0.035983656 0.66253644 -0.072953619 6.8152445e-39 289.02438 302.80487
-0.028616738 0.66166669 -0.072700217 7.4498267e-39 295.33334 302.66669
0.085685499 0.66147071 -0.071633048 7.178988e-39 393.88235 301.76471
0.094815105 0.66387093 -0.072315201 5.7114319e-39 401.4516 302.12903
0.10182308 0.66666663 -0.07104215 8.0188604e-39 407.11111 300.77777
-0.050930828 0.67033339 -0.070910648 9.9528036e-39 276.66669 300.33334
-0.049338799 0.67000002 -0.071071371 8.7535107e-39 278 300.5
-0.028680149 0.727 -0.079029746 8.3653146e-39 297.5 302
0.046589576 0.72800004 -0.079138458 8.7286951e-39 356.5 302
0.05807741 0.72799999 -0.07913845 8.8212523e-39 365.5 302
0.066069402 0.727 -0.078604273 8.8208908e-39 371.83334 301.66669
0.075229391 0.7272501 -0.078497946 8.8219698e-39 379 301.5625
0.084817246 0.72397071 -0.077724762 8.7340887e-39 386.82352 301.23529
0.094845243 0.72542864 -0.072450794 7.5463229e-39 394.57144 296.96429
0.10162188 0.72675002 -0.070399836 8.1848638e-39 399.75 295.25
-0.041799467 0.73514289 -0.071628675 7.7224563e-39 287.57144 295.57144
-0.034374498 0.73425001 -0.073856875 8.3660307e-39 293.30002 297.375
-0.025131112 0.73396111 -0.075992882 8.2720344e-39 300.47061 299.05884
-0.014812089 0.73456281 -0.076624073 8.5468178e-39 308.5 299.5
-0.0053587398 0.73492122 -0.077000484 1.0391067e-38 315.8421 299.76315
0.0046073738 0.73405987 -0.07638938 8.9130864e-39 323.57999 299.35999
0.014802586 0.73408353 -0.076573357 8.8208922e-39 331.5 299.5
0.025300205 0.73460382 -0.076201156 9.0049191e-39 339.64151 299.16983
0.035190381 0.73470002 -0.076379582 9.0049177e-39 347.32001 299.29999
0.044876352 0.73417652 -0.07515505 8.9127235e-39 354.86276 298.39218
0.054792237 0.7347073 -0.075060166 8.4542648e-39 362.53448 298.27585
0.064647511 0.73471427 -0.074628048 7.3543885e-39 370.18365 297.93878
0.075284973 0.73429537 -0.074284531 6.8062398e-39 378.47729 297.70456
0.084784135 0.73299998 -0.073015243 7.4498253e-39 385.97369 296.8158
0.091565326 0.73114288 -0.071237937 7.0828561e-39 391.42859 295.57144
-0.031223357 0.74199998 -0.07025256 7.4512434e-39 296 294
-0.024857285 0.74210525 -0.071220107 7.8171645e-39 300.89474 294.73685
-0.014967915 0.74233335 -0.071583934 8.1809136e-39 308.5 295
-0.0048927814 0.74203986 -0.071971804 8.8223229e-39 316.23999 295.32001
0.0043155104 0.74172723 -0.07140848 8.7294196e-39 323.31818 294.90909
0.01497215 0.74250007 -0.071599692 8.8212453e-39 331.5 295
0.024854422 0.74200004 -0.071210332 9.1882328e-39 339.10526 294.73685
0.035106789 0.74158818 -0.071207397 9.280064e-39 347 294.76471
0.044110764 0.74161541 -0.070715837 8.913085e-39 353.9231 294.38461
0.054871339 0.74122226 -0.070323274 7.9043309e-39 362.22223 294.11111
0.065682791 0.74100006 -0.070446596 5.4298017e-39 370.55557 294.22223
0.073276006 0.74100012 -0.070547648 5.7045866e-39 376.39999 294.30002
-0.043888997 0.66750002 -0.069050647 6.3575006e-39 282.5 299
-0.035687894 0.66456252 -0.068963967 7.1771845e-39 289.375 299.1875
0.087068617 0.66290909 -0.069103003 7.5456139e-39 394.90909 299.45456
0.094928972 0.66574192 -0.067887701 6.5364968e-39 401.32257 298.16129
0.10353764 0.66766673 -0.068547346 6.9110667e-39 408.44446 298.55557
-0.053126257 0.6748001 -0.065270416 7.0936293e-39 275.10001 295.17502
-0.045771942 0.67135286 -0.065611944 6.6294085e-39 281.11765 295.74512
-0.039647251 0.67000002 -0.066959806 7.1775418e-39 286.25 297
0.098404571 0.67157143 -0.064424731 7.4526994e-39 403.57144 294.71429
0.1048671 0.67187274 -0.063973539 6.3546363e-39 409.01816 294.30908
0.11131102 0.67537504 -0.0615751 7.3713162e-39 414 292
-0.06253811 0.68425 -0.06148348 1.1335363e-38 267.875 291.25
-0.057286851 0.68066674 -0.062257554 7.2783793e-39 272 292.16666
-0.048882935 0.68000001 -0.0608056 7.0824805e-39 279 291
0.11445759 0.68000001 -0.0608056 1.0504887e-38 416 291
0.10692529 0.69300002 -0.060752999 7.9125943e-39 408 290
0.098284855 0.72800004 -0.068197653 8.0898053e-39 397.00003 293.42859
0.10358313 0.72590309 -0.065032311 8.6429777e-39 401.38708 291.09677
-0.043005411 0.7366001 -0.067672603 7.8124968e-39 286.70001 292.39999
-0.036260907 0.73862499 -0.069609083 8.2784916e-39 292 293.75
0.079038516 0.73900002 -0.069968522 5.3383166e-39 381 294
0.08562579 0.73808336 -0.069449827 5.6138343e-39 386.16669 293.66669
0.095813446 0.73502511 -0.06601017 6.0712251e-39 394.35001 291.22501
0.10213503 0.73350012 -0.061728876 7.3576479e-39 399.41669 288
-0.043190923 0.74407154 -0.062570147 7.171086e-39 286.89288 287.96429
-0.035347003 0.74547827 -0.065516271 7.3590618e-39 292.95651 290.13043
-0.024747577 0.74752927 -0.068461984 8.1877267e-39 301.11765 292.23529
-0.015070848 0.74741662 -0.068142846 8.5500422e-39 308.5 292
-0.0052402955 0.74704742 -0.068108574 8.3645817e-39 316 292
0.0045794146 0.74633336 -0.068043083 8.0880019e-39 323.5 292
0.015253932 0.74740005 -0.068036199 8.9127221e-39 331.63998 291.91998
0.024904659 0.74760729 -0.067503653 9.004559e-39 339 291.5
0.035061907 0.74657142 -0.067690209 9.0967518e-39 346.78574 291.71429
0.045201477 0.7472499 -0.067470901 8.9130766e-39 354.5 291.5
0.055367295 0.74648494 -0.06706284 8.5461031e-39 362.30304 291.24243
0.064873822 0.74615389 -0.066648267 7.8167904e-39 369.58975 290.94873
0.075155921 0.745875 -0.067304179 6.4449934e-39 377.46875 291.46875
0.08509919 0.74506235 -0.065336287 5.7049509e-39 385.14584 290.02084
0.093149059 0.74376678 -0.06272117 5.519859e-39 391.43335 288.10001
-0.032389104 0.75212497 -0.062307663 6.2570331e-39 295.4375 287.25
-0.02518978 0.75412816 -0.063867055 6.8044531e-39 300.94873 288.30771
-0.015195088 0.75360006 -0.063417025 7.5455971e-39 308.5 288
-0.0052851471 0.75354278 -0.063412406 6.9899178e-39 316 288
0.0046241535 0.75349993 -0.063409649 7.904691e-39 323.5 288
0.015081319 0.75384617 -0.063370213 8.6372198e-39 331.41025 287.94873
0.025106104 0.75360715 -0.062759072 8.8208894e-39 339 287.5
0.034696661 0.75308353 -0.063081957 8.8208894e-39 346.27777 287.77777
0.045081101 0.75317246 -0.062791876 8.8205264e-39 354.13794 287.55173
0.054567885 0.75296277 -0.062339321 8.6375715e-39 361.33334 287.22223
0.065093338 0.75234777 -0.0620532 8.5460989e-39 369.34784 287.04349
0.074789435 0.75164288 -0.062454987 7.9050567e-39 376.75003 287.39288
0.083536081 0.7516923 -0.061335381 5.6106211e-39 383.38464 286.53848
-0.024684303 0.76099998 -0.060042895 5.2403994e-39 301.5 285
0.1063572 0.67400002 -0.059087332 6.5390107e-39 410 290
0.11190826 0.67900008 -0.059525665 5.6199467e-39 414 290
-0.062359925 0.68643755 -0.05791885 7.7379085e-39 268.1875 288.125
-0.056574602 0.68300003 -0.058051612 6.6315637e-39 272.75998 288.47998
0.10876908 0.68700004 -0.05793662 7.4552133e-39 410.30002 288.10001
0.1149599 0.6858654 -0.055772372 6.9096051e-39 415.59616 286.38461
0.12054166 0.6875 -0.053640164 1.2254796e-38 420 284.5
-0.070980772 0.69400012 -0.052726824 1.4746608e-38 261.66666 283.33334
-0.065381207 0.69320768 -0.053334609 8.6595102e-39 266.20755 283.88681
-0.059280202 0.69 -0.054440998 6.5404443e-39 271 285
0.10685005 0.69214278 -0.05599596 8.8273578e-39 408.04764 286.14285
0.11325224 0.69184202 -0.051711332 7.8204071e-39 413.36844 282.63159
0.12220559 0.69466674 -0.050340541 7.9208816e-39 420.33334 281.33334
-0.060225245 0.70099998 -0.051619884 6.8105558e-39 271 282
-0.059416957 0.70599997 -0.051370911 7.9057686e-39 272 281.5
0.10949273 0.70166671 -0.051668398 9.6528136e-39 409 282
0.11107367 0.69999999 -0.050320663 9.8371965e-39 410.5 281
0.10833934 0.71850002 -0.054799996 9.0088792e-39 406 283.5
0.11078262 0.71799994 -0.052031334 9.6528108e-39 408 281.33334
0.10723299 0.72381252 -0.053461213 8.8252124e-39 404.5 282.125
0.1110912 0.72000003 -0.053020801 9.3765911e-39 408 282
-0.053302385 0.73789996 -0.051622696 8.0883522e-39 278.80002 279.89999
0.1042703 0.73560613 -0.055306934 7.3572766e-39 400.84851 282.87878
-0.050755054 0.74224997 -0.052710459 7.9972342e-39 281 280.5
-0.046708025 0.74676472 -0.055686422 7.172514e-39 284.32352 282.52942
0.097482242 0.74630761 -0.05671325 6.1662976e-39 394.5 283.34616
0.10149547 0.74315786 -0.05417246 6.4407139e-39 397.89474 281.57895
-0.043116845 0.75435996 -0.05358642 7.6291845e-39 287.39999 280.51999
-0.036151923 0.75552934 -0.057074651 6.5311102e-39 292.70587 283.08823
-0.026172008 0.759 -0.059885096 5.4237075e-39 300.33334 285
-0.015303969 0.75899994 -0.059885092 8.1888057e-39 308.5 285
-0.0048175026 0.75774997 -0.059620131 8.4542719e-39 316.375 284.875
0.0041328017 0.75766665 -0.059632037 8.7297755e-39 323.11111 284.88889
0.015291258 0.75849998 -0.059845641 8.6375827e-39 331.5 285
0.025560364 0.75807691 -0.05919807 8.820888e-39 339.23077 284.53848
0.034659021 0.75739998 -0.059492707 8.8198202e-39 346.10001 284.80002
0.045186903 0.75800002 -0.059140805 8.9120074e-39 354.00003 284.5
0.054615162 0.75766671 -0.059632037 8.7286951e-39 361.11111 284.88889
0.065689661 0.75816667 -0.059264861 8.3627909e-39 369.41669 284.58334
0.075489767 0.75669998 -0.058640756 8.3660167e-39 376.89999 284.20001
0.085609131 0.75556231 -0.057539742 7.3544053e-39 384.625 283.4375
0.094186909 0.75364107 -0.054104138 5.5212953e-39 391.28204 280.94873
-0.040473364 0.76100004 -0.051147651 7.9968922e-39 289.66669 278.33334
-0.033827439 0.76307142 -0.05322694 6.5300438e-39 294.71429 279.78574
-0.024957985 0.76487041 -0.055124573 7.2683137e-39 301.38889 281.11111
-0.0147586 0.76526201 -0.05567541 7.3561864e-39 309 281.5
-0.0054623601 0.76495105 -0.055570491 8.8212537e-39 315.92682 281.43903
0.0047961869 0.76559544 -0.055627447 8.7297699e-39 323.57446 281.44681
0.014751084 0.76483339 -0.055643484 8.7290567e-39 331 281.5
0.024869634 0.76526642 -0.054914705 8.9130822e-39 338.53336 280.93335
0.034979183 0.76544666 -0.054844961 8.9123689e-39 346.06381 280.87234
0.04488254 0.76577556 -0.054465264 8.8201733e-39 353.42856 280.57141
0.055031653 0.76437509 -0.054854717 9.0049219e-39 361.0625 280.9375
0.064711317 0.7644397 -0.054622591 8.8230432e-39 368.28 280.75998
0.074769489 0.76492494 -0.053974789 8.8216054e-39 375.75 280.25
0.084431157 0.76287484 -0.052915052 8.6375729e-39 383.125 279.5625
0.091640882 0.76116669 -0.051603518 6.5329095e-39 388.66669 278.66669
-0.021872541 0.77166671 -0.050511196 5.8871968e-39 303.83334 277.33334
-0.014895568 0.77228564 -0.050777156 8.3635182e-39 309 277.5
-0.0054142941 0.77199996 -0.050758116 8.8226872e-39 316 277.5
0.0047375071 0.7719999 -0.050758116 8.7301301e-39 323.5 277.5
0.014889307 0.77199996 -0.050758116 8.729414e-39 331 277.5
0.024262089 0.77215379 -0.050612662 8.9134451e-39 337.9231 277.38461
0.035147324 0.77100003 -0.050017338 8.8216082e-39 346.00003 277
0.044610064 0.77100003 -0.050017338 8.9127291e-39 353.00003 277
0.05474871 0.77099997 -0.050017335 9.006361e-39 360.5 277
0.062183719 0.77100009 -0.050017338 8.9159563e-39 366 277
-0.071491286 0.69700003 -0.048882935 1.4099422e-38 261.5 280
-0.068500981 0.69766665 -0.048929691 6.9092128e-39 264 280
0.11678965 0.69386679 -0.049065981 6.7208937e-39 416.00003 280.33334
0.12181503 0.6965 -0.048541907 6.3575062e-39 419.75 279.75
-0.072071791 0.70516676 -0.044761132 1.1137267e-38 261.70834 276.20834
-0.065358765 0.70482224 -0.046047099 6.812711e-39 267.11111 277.26666
-0.059501119 0.70700002 -0.048965335 8.2713127e-39 272 279.5
0.10985684 0.704 -0.049373865 1.0206699e-38 409 280
0.11581608 0.70331585 -0.045848973 8.6462049e-39 413.92105 277.1842
0.12301556 0.70141196 -0.043870058 6.6333756e-39 420.02942 275.67648
-0.07523144 0.71116674 -0.041354701 1.5074317e-38 259.66669 273.16669
-0.06458053 0.71393335 -0.043066073 6.991001e-39 268.40002 274.40002
-0.059250388 0.71899998 -0.04790457 8.2698778e-39 273 278
0.11488709 0.71567994 -0.043869097 9.8371909e-39 411.56 274.95999
-0.062391669 0.7213335 -0.042156331 7.7203054e-39 270.66669 273.33334
-0.058263931 0.7254287 -0.044696305 7.9028987e-39 274.19049 275.14285
0.1093028 0.72699994 -0.048755378 9.7449925e-39 405.75 278.25
0.11278158 0.72439998 -0.043629248 9.7439149e-39 408.80002 274.35001
-0.055104956 0.73563641 -0.045555826 7.6273867e-39 277.27274 275.31818
0.10803007 0.73571438 -0.045142066 7.9068588e-39 403.75003 275
0.1107941 0.73100001 -0.043290965 8.9181185e-39 406.44446 273.77777
-0.052682545 0.74451989 -0.043751698 6.9852528e-39 279.63998 273.51999
-0.049219571 0.74660003 -0.048694625 6.8026482e-39 282.39999 277.20001
0.10448924 0.74468744 -0.045454565 5.6106085e-39 400.03125 274.8125
-0.050103247 0.75199997 -0.042851463 7.4433541e-39 282 272.5
-0.0471083 0.75574076 -0.045834858 7.2593202e-39 284.44446 274.59259
0.098427571 0.75709993 -0.045991328 5.8896925e-39 394.14999 274.64999
0.10182343 0.75324994 -0.044043206 5.154647e-39 397.10001 273.35001
-0.042660356 0.76305538 -0.044072419 7.8125024e-39 288.11111 272.94446
-0.036066994 0.76724994 -0.046786379 7.3551242e-39 293.1875 274.78125
-0.027640421 0.76899999 -0.04988759 6.9971218e-39 299.5 277
0.066741504 0.76899999 -0.04988759 9.0052806e-39 369.5 277
0.074831389 0.76899999 -0.049887594 8.9130836e-39 375.5 277
0.086266369 0.76742309 -0.047972415 7.9029015e-39 384.11539 275.65387
0.093920998 0.76363027 -0.044470403 6.9052779e-39 390.15219 273.21741
-0.033624794 0.77335995 -0.043007992 8.6447714e-39 295.19998 271.72
-0.025722399 0.77511919 -0.045879062 7.9158369e-39 301.07144 273.7619
-0.01526635 0.77617401 -0.047391839 8.7305e-39 308.78262 274.82608
-0.0052564931 0.77590913 -0.047489036 8.3635112e-39 316.13638 274.90909
0.0045714304 0.77592003 -0.047504537 7.3536766e-39 323.35999 274.91998
0.014966454 0.77600008 -0.047618195 8.3620776e-39 331 275
0.02495878 0.77586961 -0.047669318 8.8216124e-39 338.34784 275.04349
0.035119187 0.77581817 -0.047544654 8.7290553e-39 345.81821 274.95456
0.045315515 0.77488232 -0.047869299 8.8205306e-39 353.35294 275.23529
0.055312518 0.77513349 -0.047020543 8.9138039e-39 360.70001 274.60001
0.065419473 0.77419353 -0.046497431 8.7297713e-39 368.19354 274.25806
0.075346202 0.77416313 -0.045257363 8.5453843e-39 375.51019 273.34692
0.084318861 0.77325016 -0.043306254 8.7312203e-39 382.19446 271.94446
0.091022551 0.77100009 -0.041005209 7.1757524e-39 387.33334 270.33334
-0.023058223 0.78069228 -0.042116817 8.3717746e-39 303.15387 270.76923
-0.01457667 0.7829656 -0.042742163 8.9177597e-39 309.3793 271.13794
-0.0056214957 0.78423542 -0.042537726 8.3743096e-39 315.91177 270.94119
0.0049341484 0.78415388 -0.042543054 6.9910038e-39 323.58975 270.94873
0.01511343 0.78360009 -0.042583752 9.0067198e-39 331 271
0.024731718 0.78362882 -0.042586815 9.0059981e-39 338 271
0.034739599 0.78327024 -0.042791337 8.8212495e-39 345.2973 271.16217
0.044847559 0.78230327 -0.043514021 8.8208936e-39 352.69699 271.72729
0.054497786 0.78130442 -0.042702895 8.9141612e-39 359.78262 271.17392
0.064546034 0.78090471 -0.042248234 8.637217e-39 367.14285 270.85715
0.072140895 0.77999997 -0.041369896 8.4531929e-39 372.75 270.25
0.12497473 0.70763642 -0.039138865 6.9095981e-39 420.72729 271.54547
-0.07286828 0.71478581 -0.038757429 9.7554013e-39 261.85715 270.92859
-0.068490967 0.71585715 -0.038905215 6.5382849e-39 265.42859 271
0.11939819 0.71683329 -0.037909988 9.5645739e-39 415 270.16669
0.12410153 0.71294862 -0.035733335 7.0914755e-39 419.28204 268.58975
-0.080414876 0.72799999 -0.03510173 1.4366656e-38 257 267.5
-0.074830599 0.72417378 -0.034026247 1.0312914e-38 261.06522 266.80435
-0.065782793 0.72361767 -0.036231034 7.2665103e-39 268.14706 268.55884
-0.059992049 0.72799999 -0.039569225 8.2702407e-39 273 271
0.11687996 0.72489291 -0.036537714 9.8379224e-39 411.96429 268.75
0.12491405 0.72405005 -0.031799678 7.3666232e-39 418.39999 265.05002
0.13093017 0.72500002 -0.031143583 1.1797408e-38 423 264.5
-0.063622899 0.73389649 -0.033363879 7.9068476e-39 270.55173 265.93103
-0.058903232 0.73566663 -0.037399575 8.0862096e-39 274.33334 269
0.10960437 0.73833334 -0.038405012 9.1886013e-39 404.66669 269.66669
0.1138707 0.73347491 -0.034591991 9.7446477e-39 408.55002 266.89999
0.12159367 0.73000002 -0.030718399 8.9253043e-39 415 264
-0.061063338 0.741 -0.03118128 8.3649447e-39 273 264
-0.056474321 0.74481237 -0.035341609 7.8107031e-39 276.75 267.0625
0.10785645 0.74511993 -0.035531092 7.9046966e-39 402.56 267.19998
0.11120866 0.74233341 -0.031813648 9.7435659e-39 405.44446 264.44446
-0.052689135 0.75377417 -0.033976145 7.5341162e-39 280.12903 265.70966
-0.048654649 0.75820005 -0.038817398 7.2593244e-39 283.39999 269.20001
0.099808492 0.759 -0.037927229 5.1532078e-39 395 268.5
0.10412039 0.75443584 -0.034933999 4.9673774e-39 398.71796 266.41025
-0.050702889 0.76099998 -0.030688593 6.7083128e-39 282 263
-0.045255143 0.76467377 -0.034975264 8.7383851e-39 286.23914 266.08698
0.096326157 0.76635897 -0.03514022 5.5216316e-39 391.69232 266.15384
0.1012841 0.76210004 -0.032469451 5.3365159e-39 395.80002 264.30002
-0.041133955 0.77100003 -0.032829918 8.6440357e-39 289.57144 264.28574
-0.035927679 0.77476203 -0.035575852 9.5684877e-39 293.54764 266.19049
0.086636156 0.77592105 -0.035906285 8.6447812e-39 383.6842 266.39474
0.091765232 0.77235287 -0.034730025 7.0842812e-39 387.76471 265.64706
-0.031272553 0.78116661 -0.033782739 8.0930269e-39 297.16666 264.66666
-0.024979906 0.78509444 -0.035340313 8.464322e-39 301.84906 265.67926
-0.016209045 0.78751838 -0.037328854 8.7366027e-39 308.25925 267.03705
-0.0069168992 0.78899997 -0.038388796 6.902778e-39 315 267.75
0.0055335197 0.78899997 -0.038734641 1.1502827e-38 324 268
0.01521718 0.78899997 -0.038734641 8.820525e-39 331 268
0.025419606 0.78899997 -0.038561717 9.0056394e-39 338.375 267.875
0.034992695 0.78849983 -0.038276907 8.9130808e-39 345.3125 267.6875
0.045359232 0.78738087 -0.038718682 8.913085e-39 352.85715 268.04764
0.055546239 0.78618526 -0.037928559 8.7308475e-39 360.2963 267.51852
0.065361835 0.78595459 -0.036352865 9.3751478e-39 367.43182 266.38638
0.074944898 0.78355575 -0.034949195 9.6535353e-39 374.55557 265.44446
0.082905799 0.78079993 -0.033238359 9.5624145e-39 380.56 264.28
-0.021238713 0.79000008 -0.030934645 8.1830758e-39 304.66669 262.33334
-0.014505597 0.79092312 -0.032587189 7.9093601e-39 309.53848 263.5
-0.0052900198 0.7930733 -0.034010556 6.628684e-39 316.1951 264.46341
0.0047790138 0.79457176 -0.034224134 1.0397927e-38 323.42856 264.57141
0.015332982 0.7950002 -0.034142483 1.4731842e-38 331 264.5
0.025003472 0.79546332 -0.034078203 1.0573681e-38 337.92682 264.43903
0.034892734 0.79605716 -0.033493575 8.7294112e-39 345 264
0.044837724 0.79365015 -0.033703621 8.6361436e-39 352.22501 264.22501
0.054777645 0.79129058 -0.032668218 9.9312012e-39 359.48386 263.54837
0.063538909 0.79046154 -0.031556495 1.1412084e-38 365.84616 262.76923
-0.075309172 0.72800004 -0.029357811 8.7549429e-39 261 263
0.126883 0.72763646 -0.028414838 6.4504207e-39 419.45456 262.27274
0.13056231 0.72719997 -0.028305111 1.1062364e-38 422.39999 262.20001
-0.073213093 0.73496294 -0.026289413 7.277652e-39 263.18518 260.40741
-0.067065388 0.73666674 -0.027312195 6.5354206e-39 268.07407 261.14816
0.11764167 0.73695248 -0.0275624 1.075916e-38 411.04764 261.33334
0.12399859 0.73372555 -0.024636712 7.5520963e-39 416.39218 259.15686
0.1305532 0.73000002 -0.025598666 1.216582e-38 422 260
-0.073733062 0.74176937 -0.021608617 8.2936116e-39 263.30771 256.61539
-0.063507028 0.74433339 -0.024140313 7.1750391e-39 271.33334 258.5
-0.059345659 0.74666667 -0.028797332 8.1812835e-39 274.66669 262
0.10899947 0.74900001 -0.028891427 8.4571683e-39 403 262
0.11410376 0.74433351 -0.024711808 1.0391105e-38 407.4375 258.9375
0.12082746 0.741 -0.020787518 8.2828216e-39 413 256
-0.055649847 0.7545681 -0.025164912 7.9039791e-39 277.93182 259.02274
0.10746834 0.75520009 -0.025420353 6.8117034e-39 401.16669 259.20001
0.11086239 0.75049996 -0.022040276 9.9341005e-39 404.25 256.75
-0.051344473 0.76138461 -0.023514897 6.5285949e-39 281.53848 257.61539
-0.046879772 0.76560974 -0.024946555 6.8930642e-39 285.07315 258.58536
0.097955428 0.7676667 -0.025273651 6.4353175e-39 392.77777 258.77777
0.10288984 0.76265776 -0.024244772 5.3350866e-39 396.94736 258.13159
-0.041917168 0.7723043 -0.024843896 7.2578937e-39 289.04349 258.34784
-0.037499417 0.77590013 -0.025619123 6.4313644e-39 292.43335 258.83334
0.088855796 0.7771579 -0.025100721 6.9917226e-39 385.21054 258.42105
0.093336843 0.77335149 -0.024809094 7.445152e-39 388.83786 258.2973
-0.032496274 0.7821334 -0.024272623 4.7801219e-39 296.30002 257.70001
-0.026993373 0.78799993 -0.025452262 5.2403868e-39 300.46155 258.4231
0.069168992 0.78899997 -0.02835929 8.0858607e-39 370 260.5
0.075721674 0.78699988 -0.025140099 8.003732e-39 374.88 258.22
0.083924875 0.7816844 -0.024525259 7.4530721e-39 381.23685 257.89474
-0.022534907 0.79043484 -0.024282902 5.9757939e-39 303.73914 257.52176
-0.015317119 0.79444909 -0.025070947 7.3547598e-39 309 258
-0.0061854958 0.79740012 -0.025863415 7.997967e-39 315.57501 258.5
0.0033744446 0.79800004 -0.028230106 9.1025097e-39 322.41177 260.17648
0.038476899 0.79799998 -0.029382357 1.2144598e-38 347.5 261
0.045356102 0.79799998 -0.028799374 1.3535087e-38 352.41669 260.58334
0.055461857 0.79652381 -0.025733503 9.1936362e-39 359.71429 258.42859
0.064639598 0.79292315 -0.024754368 8.0862152e-39 366.5 257.80771
0.071103513 0.79000008 -0.022392988 8.000481e-39 371.33334 256.16669
-0.0029615751 0.80022228 -0.022136807 7.7231752e-39 317.88889 255.77779
0.0055837817 0.80115366 -0.023949541 9.5660018e-39 323.97437 257.0513
0.015466869 0.80193859 -0.025305886 9.9326137e-39 331 258
0.0253099 0.80193847 -0.025305534 1.2700656e-38 338 258
0.035002723 0.80197847 -0.025127763 1.0486869e-38 344.89362 257.87234
0.044758528 0.80113512 -0.024104821 8.3631608e-39 351.86487 257.16217
0.051303312 0.80044448 -0.023234004 7.9018239e-39 356.55557 256.55557
0.12525229 0.73899996 -0.018427923 8.4812567e-39 416.66666 254.22223
-0.072980836 0.74564701 -0.018069956 8.2017747e-39 264.17648 253.82353
-0.066171922 0.74736363 -0.018105555 6.8134452e-39 269.5 253.81819
0.11758366 0.74635708 -0.01686788 8.4672255e-39 409.85715 252.89287
0.12257124 0.74370372 -0.014818914 7.4645782e-39 414 251.37038
-0.071024895 0.7525 -0.012750241 9.4914275e-39 266.16669 249.66667
-0.064687923 0.75538468 -0.013817075 6.6290484e-39 271.15384 250.4359
-0.058174595 0.75778568 -0.018029403 7.7235353e-39 276.21429 253.57144
0.10896967 0.75723076 -0.017462391 7.2690368e-39 402.07693 253.15385
0.11361158 0.75349998 -0.01401798 9.1082747e-39 406 250.61365
0.12229499 0.75 -0.01052 7.1912339e-39 413 248
-0.060487658 0.76100004 -0.011119056 5.8940113e-39 274.66669 248.33334
-0.054554772 0.76268882 -0.01438041 7.5409448e-39 279.20001 250.75555
-0.048256833 0.7674545 -0.015288987 7.7217459e-39 284.13638 251.36365
0.098930582 0.76842862 -0.015396772 9.7428555e-39 393.42859 251.42859
0.10449251 0.76371419 -0.014454657 9.1014349e-39 398.0408 250.79591
-0.04334012 0.77323538 -0.014592991 7.7203082e-39 288.02942 250.76471
-0.039375484 0.77774996 -0.015510425 7.2600503e-39 291.125 251.375
0.089232393 0.77700001 -0.018391591 8.6372352e-39 385.5 253.5
0.093887419 0.7744469 -0.014617275 9.3762408e-39 389.14893 250.76595
-0.034198321 0.78233331 -0.015002249 5.9747163e-39 295.0625 250.9375
-0.02664122 0.78899974 -0.015217177 4.9638055e-39 300.74191 251
0.076846875 0.78777772 -0.01546133 8.5540555e-39 375.63889 251.19444
0.084622018 0.78210199 -0.014915463 8.5515304e-39 381.71426 250.87755
-0.021934198 0.79011112 -0.015239194 4.4131597e-39 304.16666 251
-0.015320627 0.79461223 -0.015326065 6.4342595e-39 309 251
-0.0072122253 0.79781264 -0.014994503 6.0672678e-39 314.84375 250.71875
0.055966385 0.79800016 -0.015390756 8.090548e-39 360 251
0.064790562 0.79474998 -0.015328201 8.3667944e-39 366.50003 251.00002
0.071796075 0.79000002 -0.014774755 7.6270391e-39 371.83334 250.66667
-0.0025578036 0.80000013 -0.016171921 6.4364007e-39 318.17648 251.52942
0.0049262401 0.8023749 -0.01547573 6.8970229e-39 323.5 251.00002
0.015495421 0.80340815 -0.015493632 7.9976069e-39 331 251
0.02534561 0.80308163 -0.015489052 8.6418959e-39 338 251
0.035198167 0.80299997 -0.01548719 8.8309745e-39 345 251
0.045029167 0.80259168 -0.015479499 8.2763742e-39 352 251
0.051224384 0.80042869 -0.015438351 7.9075931e-39 356.50003 251.00002
-0.066493854 0.75849992 -0.0088102808 8.2907235e-39 270 246.625
0.11680209 0.7566666 -0.0069619766 6.910324e-39 408.04169 245.25
0.12172148 0.75460005 -0.007936989 8.5748914e-39 412 246
-0.062208556 0.76166654 -0.0060627349 7.7389959e-39 273.41669 244.54167
-0.055467796 0.76560462 -0.0058039827 6.6276205e-39 278.67441 244.32558
-0.049438149 0.76899999 -0.0089887548 8.3649531e-39 283.33334 246.66667
0.09977518 0.76899999 -0.0094381925 1.0570092e-38 394 247
0.10607316 0.76648891 -0.005940333 1.0207778e-38 398.93335 244.42223
0.11318333 0.7620644 -0.0041787578 7.1843942e-39 404.70966 243.12903
-0.051312417 0.77200001 -0.0030747091 6.2592009e-39 282.09091 242.27274
-0.045188323 0.77492869 -0.0057882946 7.9976097e-39 286.7381 244.2619
-0.039558705 0.778 -0.0088666063 8.2709624e-39 291 246.5
0.095195174 0.77497923 -0.0055193095 1.0573687e-38 390.0625 244.0625
0.10140111 0.77179998 -0.0038775553 1.0569009e-38 394.93335 242.86668
-0.041939732 0.77999997 -0.0022793333 8.4564299e-39 289.33334 241.66667
-0.034824219 0.78311104 -0.0053638685 8.2716813e-39 294.62964 243.90741
-0.027601724 0.78899986 -0.0059287706 7.5355652e-39 300.04764 244.28572
0.077193148 0.78803205 -0.0055718087 8.4535628e-39 375.87097 244.03226
0.084735699 0.78246146 -0.0055401274 9.3780372e-39 381.76926 244.03847
0.09043254 0.77999997 -0.0049575502 1.085243e-38 386.125 243.625
-0.02290993 0.7902146 -0.0052442197 7.3522557e-39 303.46429 243.78572
-0.015313542 0.79424495 -0.0055703032 6.8930768e-39 309 244
-0.0062219948 0.79733342 -0.0057918429 4.5074979e-39 315.54764 244.14287
0.055849791 0.79800016 -0.0054800422 8.5508059e-39 359.91666 243.91667
0.0647275 0.79400021 -0.0055695889 8.6430029e-39 366.50003 244.00002
0.072152853 0.79000008 -0.0053516515 8.0876571e-39 372.09091 243.86365
-0.0018034286 0.80000007 -0.0044083809 3.9575583e-39 318.71429 243.14287
0.0049230144 0.80174977 -0.0056229089 4.9677572e-39 323.5 244.00002
0.015486619 0.80295908 -0.0056315986 7.4444457e-39 331 244
0.025342681 0.80299997 -0.0056317057 7.6273965e-39 338 244
0.035198167 0.80299997 -0.0056317057 8.0923501e-39 345 244
0.04500227 0.80214274 -0.0056262673 8.2756581e-39 352 244
0.051143385 0.80000013 -0.005934359 8.4589648e-39 356.46155 244.23077
0.10728482 0.76787508 0.0021032328 7.3709378e-39 399.6875 238.4375
0.11228222 0.76500005 0.0012474966 9.7709137e-39 403.71429 239.07144
-0.052479293 0.77484214 0.0020781613 7.3691386e-39 281.36841 238.47368
-0.048309848 0.77771431 0.0013640934 6.2617232e-39 284.57144 239.00002
0.09697248 0.77664292 0.0030668308 9.8436733e-39 391.21429 237.75002
0.10342601 0.77395135 0.005101088 8.8435512e-39 396.21948 236.2439
-0.051057063 0.77999997 0.0072938665 1.1151659e-38 282.66669 234.66667
-0.044700161 0.78079581 0.0052820053 7.459172e-39 287.34692 236.14285
-0.035361458 0.78493345 0.0045448728 7.542028e-39 294.30002 236.70001
-0.028497627 0.78899997 0.0029050978 8.4560739e-39 299.39999 237.90001
0.078140981 0.7888 0.0024900839 1.0481145e-38 376.5 238.2
0.084814779 0.78519362 0.0046895151 9.837928e-39 381.61288 236.59677
0.09332598 0.78086126 0.0061238073 8.5572561e-39 388.16666 235.52779
-0.031165499 0.79000002 0.0090033673 5.9837e-39 297.5 233.5
-0.024188148 0.79139155 0.0052803541 8.0887333e-39 302.56522 236.19566
-0.015339414 0.79546446 0.0048829066 7.9958231e-39 309 236.50002
-0.0073007816 0.79750001 0.0045839911 5.5180555e-39 314.77777 236.72223
0.055998486 0.79794896 0.0045556086 8.6422757e-39 360.02563 236.74359
0.064780906 0.79462504 0.0048789778 8.7315804e-39 366.5 236.5
0.074111804 0.79073942 0.005367334 9.0060093e-39 373.45654 236.13043
0.080337733 0.79000002 0.0090033673 9.3740786e-39 378 233.5
-0.0025260274 0.80060005 0.0054760105 5.7020922e-39 318.20001 236.10001
0.0049220445 0.80203068 0.0049223462 7.1700253e-39 323.5 236.5
0.015484843 0.8028394 0.0049269903 7.9039819e-39 331 236.50002
0.025342677 0.80300021 0.0049277428 7.8114248e-39 338 236.50002
0.035203993 0.80314308 0.0049288077 8.2753008e-39 345.00003 236.50002
0.044979818 0.80174965 0.0049201348 8.4596907e-39 352.00003 236.50002
0.051403604 0.80000013 0.0056931763 8.4593235e-39 356.64706 235.94118
0.099578805 0.778 0.010912746 9.9581818e-39 393 232
0.1013976 0.77800006 0.011367444 1.1982521e-38 394.33334 231.66667
-0.044151913 0.78460008 0.01155622 1.2070736e-38 287.89999 231.60001
-0.036578722 0.78733319 0.012578999 9.3966997e-39 293.5 230.88889
0.085485823 0.78647053 0.01370787 8.2903746e-39 382 230.05882
0.094383501 0.78057158 0.012904032 9.4925149e-39 388.96429 230.57144
-0.032113355 0.79173332 0.014440221 9.5818197e-39 296.86667 229.60001
-0.024913775 0.79542238 0.014974556 7.5524494e-39 302.13333 229.26668
-0.015368499 0.79693884 0.01537215 6.9031297e-39 309 229
-0.00909454 0.79799992 0.013117125 7.6324257e-39 313.5 230.625
0.057291906 0.79790491 0.015122914 7.4505652e-39 360.95239 229.19048
0.064953618 0.79671466 0.015367717 7.4519959e-39 366.50003 229.00002
0.07496874 0.79279178 0.015206076 7.7310982e-39 373.9375 229.0625
0.080337733 0.79000008 0.014543901 7.918725e-39 378 229.5
-0.025949333 0.80000001 0.019637333 1.2533164e-38 301.5 226
-0.0049302876 0.80097538 0.01589418 7.3598003e-39 316.48779 228.68292
0.0049263965 0.80253565 0.015478612 8.1848918e-39 323.5 229.00002
0.015487192 0.80299997 0.015487191 8.8270116e-39 331 229
0.025349475 0.80320412 0.015492206 1.0299622e-38 338 229
0.035204895 0.80316329 0.0154912 8.3667608e-39 345 229
0.045031674 0.80263251 0.015480286 7.6335173e-39 352 229
0.052659113 0.80014282 0.015632596 7.2665369e-39 357.53574 228.85715
-0.021686979 0.79799998 0.020987399 1.1887071e-38 304.5 225
-0.014924371 0.7980001 0.022153361 1.1426444e-38 309.33334 224.16667
-0.0044443901 0.79800004 0.024361836 1.105767e-38 316.82352 222.58824
0 0.79799998 0.025884457 1.1795243e-38 320 221.5
0.055406727 0.7980001 0.02329601 9.3059628e-39 359.60001 223.35001
0.064140037 0.79722214 0.021976864 9.4903569e-39 365.88889 224.27779
0.072573975 0.796 0.020934802 8.7560275e-39 372 225
-0.023845334 0.80000001 0.02104 1.2624277e-38 303 225
-0.0063601583 0.80040014 0.02264021 9.1201198e-39 315.46667 223.86668
0.0050864187 0.80270952 0.023154348 9.3963452e-39 323.61288 223.54839
0.015483059 0.80278552 0.023224212 8.1996153e-39 331 223.50002
0.025662918 0.80441928 0.023613498 8.1088574e-39 338.19354 223.25806
0.035320096 0.80574286 0.024018718 8.844263e-39 345 223
0.044808302 0.8028999 0.023464162 7.8308314e-39 351.83334 223.33334
0.051898669 0.80000007 0.021741334 7.8297524e-39 357 224.5
