# .PCD v0.7 - Point Cloud Data file format
VERSION 0.7
FIELDS x y z rgb imX imY
SIZE 4 4 4 4 4 4
TYPE F F F F F F
COUNT 1 1 1 1 1 1
WIDTH 619
HEIGHT 1
VIEWPOINT 0 0 0 1 0 0 0
POINTS 619
DATA ascii
-0.0027211732 0.77600002 -0.081635199 4.7970636e-39 318 300
-0.011345819 0.71899992 -0.075638786 6.182519e-39 311 300
-0.0081714094 0.71700001 -0.074799828 4.3385966e-39 313.5 299.5
0.0069335569 0.71899998 -0.074378155 4.3328233e-39 325.5 299
0.010715496 0.71899998 -0.075008474 4.2435185e-39 328.5 299.5
-0.032450691 0.72225004 -0.071390249 6.4572982e-39 294.375 296.375
-0.024295205 0.72196782 -0.072765924 5.9966788e-39 300.80646 297.48386
-0.015088257 0.72199982 -0.073316604 5.3491402e-39 308.08334 297.91666
-0.0049704402 0.72211111 -0.072541684 4.4228483e-39 316.07407 297.2963
0.0039618695 0.72116208 -0.073440157 4.8849138e-39 323.13513 298.08109
0.014661374 0.72162074 -0.072554797 3.5034199e-39 331.58621 297.34482
0.024590163 0.72207701 -0.072358981 4.1498753e-39 339.4231 297.15387
0.033785302 0.7232728 -0.071244307 3.5988722e-39 346.63638 296.18182
-0.012127806 0.76849997 -0.070739985 5.3350908e-39 311 292.5
-0.0057453541 0.76681823 -0.071868971 5.3354481e-39 315.72729 293.45456
0.0020224699 0.76899999 -0.070112288 5.4244109e-39 321.5 292
0.018876385 0.76899999 -0.070112288 4.9666726e-39 334 292
-0.054070305 0.72757685 -0.063243732 8.2097439e-39 277.61539 289.57693
-0.044873338 0.72653049 -0.06447129 6.1792694e-39 284.77551 290.61224
-0.034932908 0.72449982 -0.065413505 4.6076039e-39 292.5 291.5
-0.025365131 0.72415215 -0.066625699 4.6965555e-39 300.02176 292.47827
-0.01495973 0.7260834 -0.068637446 4.5118055e-39 308.25 293.91669
-0.004236443 0.72388887 -0.069243029 4.7869547e-39 316.66666 294.55557
0.0049041319 0.72313339 -0.067914799 5.0603004e-39 323.86667 293.56668
0.01418667 0.72287083 -0.067827024 4.6018459e-39 331.19354 293.51611
0.025147278 0.72516662 -0.066132769 4.7862372e-39 339.77777 292.01852
0.034652881 0.72529811 -0.065702252 4.5121684e-39 347.24561 291.66666
0.045102954 0.72714996 -0.065370135 4.0555161e-39 355.375 291.27499
0.052018274 0.72755557 -0.063923806 4.3328359e-39 360.77777 290.11111
-0.061607752 0.73012501 -0.060967125 9.0420339e-39 271.875 287.625
-0.058876935 0.73000002 -0.06271673 9.4100933e-39 274 289
-0.040957868 0.73000002 -0.060156867 4.7837233e-39 288 287
-0.034756321 0.73122221 -0.060399797 5.4251284e-39 292.88889 287.11111
-0.023465445 0.73000002 -0.064423315 5.2418203e-39 301.66669 290.33334
-0.017121958 0.73012501 -0.06576775 5.3332999e-39 306.625 291.375
0.03758036 0.7306667 -0.061065093 5.4244137e-39 349.33334 287.66666
0.045031153 0.73033321 -0.061037619 4.7862358e-39 355.16666 287.66666
0.054866482 0.72999996 -0.061010148 4.2384654e-39 362.8667 287.66669
0.061716747 0.73333335 -0.060431551 6.3636719e-39 368 287
-0.023779387 0.76772231 -0.065433137 5.5151688e-39 302.33334 288.61111
-0.014996478 0.76875001 -0.067898482 5.6077274e-39 308.875 290.375
-0.0053862398 0.76800007 -0.069346964 5.6073631e-39 316 291.5
0.0035955021 0.76877779 -0.068294272 5.2403798e-39 322.66666 290.66666
0.016629197 0.76899999 -0.068539254 4.7837177e-39 332.33334 290.83334
0.023895597 0.76846671 -0.065749995 4.5975299e-39 337.73334 288.80002
0.031011207 0.76899999 -0.064719036 4.5975313e-39 343 288
-0.033125725 0.77288884 -0.061733115 5.2396553e-39 295.55557 285.55557
-0.025117306 0.77262497 -0.062482368 5.2389407e-39 301.45834 286.125
-0.014697123 0.77404886 -0.06384553 5.6999202e-39 309.17072 287.04877
-0.0054307831 0.77450019 -0.064496867 5.4233347e-39 316 287.5
0.0047107413 0.77451026 -0.064316653 5.2403798e-39 323.46939 287.36734
0.014786901 0.77425522 -0.063998938 4.8751944e-39 330.89362 287.14893
0.024419351 0.77361536 -0.062233835 3.9546913e-39 338 285.88461
0.034463171 0.77540004 -0.062061168 3.6788219e-39 345.35001 285.64999
0.04173021 0.77399999 -0.061407864 4.7819226e-39 350.75 285.25
-0.012308399 0.77999997 -0.060174398 5.2396666e-39 311 284
-0.0054704002 0.78000003 -0.060174406 5.0541977e-39 316 284
0.0052424665 0.77999997 -0.060174402 5.1463891e-39 323.83334 284
0.010940799 0.77999997 -0.060174398 5.1481842e-39 328 284
-0.054886345 0.72799999 -0.059353843 4.9810653e-39 277 286.5
-0.046430018 0.72800004 -0.059832495 4.6983534e-39 283.625 286.875
0.034321502 0.72500002 -0.059744831 5.0570704e-39 347 287
-0.07164003 0.73400009 -0.051048886 8.8540287e-39 264.33334 279.66669
-0.064212963 0.73163623 -0.054012928 6.5480407e-39 269.94543 282.10907
-0.054900303 0.73215377 -0.053835467 5.1564561e-39 277.23077 281.94232
-0.045743272 0.73304534 -0.055900607 5.1507023e-39 284.40909 283.5
-0.03754143 0.73246151 -0.05798623 5.4247683e-39 290.76926 285.15387
0.039840993 0.73299998 -0.059118889 5.149266e-39 351 286
0.046102811 0.73487502 -0.056729876 5.2414616e-39 355.78125 284.03125
0.054857902 0.73540926 -0.056229346 5.3368914e-39 362.54547 283.61365
0.064924248 0.73558491 -0.054674543 4.9767549e-39 370.33963 282.39624
0.071419403 0.73724997 -0.051380992 4.8852824e-39 375.25 279.75
-0.050737958 0.74199998 -0.050737958 5.6084421e-39 281 279
-0.041141964 0.74100006 -0.055000313 4.8737539e-39 288.33334 282.33334
0.056171864 0.74181253 -0.051781081 5.882878e-39 363.1875 279.8125
0.061733548 0.74124998 -0.051336285 5.7931949e-39 367.5 279.5
-0.050384954 0.77666664 -0.051745545 4.4145778e-39 283 278
-0.044581484 0.77503234 -0.053081077 3.9561192e-39 287.19354 279.06451
-0.035444219 0.77471441 -0.056366779 4.8723232e-39 293.90475 281.5
-0.025655743 0.77579319 -0.057970978 5.2393064e-39 301.13794 282.6207
-0.018626245 0.77733338 -0.059059277 5.1489017e-39 306.33334 283.33334
0.01907276 0.77700001 -0.059260912 4.6900899e-39 334 283.5
0.023163091 0.77711111 -0.059193697 4.0486848e-39 337 283.44446
0.036695633 0.77706665 -0.05876613 3.2178563e-39 346.93335 283.13336
0.044771831 0.77693349 -0.055894401 3.495511e-39 352.8667 281.03336
0.054011282 0.7771818 -0.051903926 3.9543311e-39 359.63638 278.09091
-0.052880526 0.77999997 -0.051512938 4.6900829e-39 281.33334 277.66669
-0.041711796 0.77999997 -0.050601196 4.3263395e-39 289.5 277
-0.034069605 0.78072226 -0.05163626 4.9638041e-39 295.11111 277.72223
-0.024258327 0.78129047 -0.053112943 6.3452924e-39 302.29031 278.7742
-0.01496906 0.78376591 -0.054783702 9.3884433e-39 309.10638 279.87234
-0.0055019585 0.78451025 -0.055010006 8.1877393e-39 316 280
0.0048096431 0.78392863 -0.054970831 7.1732426e-39 323.5 280
0.01502168 0.78335416 -0.054845653 4.5986075e-39 330.9375 279.9375
0.024868887 0.78306842 -0.05444365 3.4043874e-39 338.11365 279.65909
0.034500595 0.78178722 -0.054153897 3.4051174e-39 345.1702 279.51062
0.043985542 0.78093749 -0.051859215 3.3122099e-39 352.125 277.875
-0.073744573 0.73787099 -0.045276672 6.0845346e-39 263 275
-0.06541615 0.73615909 -0.046109885 5.3412004e-39 269.31818 275.72729
-0.056933802 0.73715007 -0.047171678 5.6080847e-39 275.95001 276.5
0.068672806 0.73900002 -0.04923711 4.7901917e-39 373 278
0.073384494 0.73900002 -0.048059184 4.4224994e-39 376.63638 277.09091
-0.080551639 0.741 -0.04027582 8.297957e-39 258 271
-0.075589597 0.74105889 -0.041272536 5.8068645e-39 261.82352 271.76471
-0.065058306 0.74306262 -0.041607589 5.5158919e-39 270.0625 271.9375
-0.05722288 0.74387491 -0.045323443 5.4233347e-39 276.125 274.75
0.058370806 0.74533337 -0.049223077 5.882878e-39 364.66669 277.66669
0.065035716 0.74394447 -0.046808012 6.0669077e-39 369.86111 275.88889
0.075001232 0.74310869 -0.043698519 5.0649821e-39 377.56522 273.54349
0.0820373 0.74366677 -0.042266738 5.0689548e-39 382.91669 272.41669
-0.06312 0.75 -0.040764999 5.606654e-39 272 271
0.066567399 0.7518 -0.042706646 5.6995601e-39 370.5 272.39999
0.070538357 0.75199997 -0.040873706 5.9736331e-39 373.5 271
-0.06204433 0.76099998 -0.040695742 5.2393092e-39 273.5 270.5
0.066714332 0.76099998 -0.040695742 4.6900885e-39 370 270.5
-0.060474798 0.77800006 -0.044105686 5.0563501e-39 275.66669 272.33334
-0.055719376 0.77722222 -0.046484374 4.413496e-39 279.11111 274.11111
-0.047743268 0.77800006 -0.049107358 3.6820518e-39 285 276
0.057692684 0.77685714 -0.047575451 3.8632033e-39 362.35715 274.92859
0.063620284 0.77676195 -0.043905806 4.3227437e-39 366.71429 272.2381
-0.06093622 0.78100002 -0.041765273 4.688292e-39 275.5 270.5
-0.05348976 0.78160024 -0.043574013 3.9554059e-39 280.96667 271.80002
-0.044823002 0.78541374 -0.044317074 4.6004096e-39 287.44827 272.18967
-0.035067804 0.78655094 -0.045896865 7.3623226e-39 294.57141 273.28571
-0.024836382 0.78699988 -0.046220403 1.1143032e-38 302 273.5
-0.015217181 0.78899986 -0.048418291 1.0585526e-38 309 275
-0.0055335197 0.78899992 -0.049109984 7.4508945e-39 316 275.5
0.0057210471 0.7889089 -0.048412558 6.8066083e-39 324.13638 275
0.015101728 0.7885384 -0.047857098 6.2624267e-39 330.9231 274.61539
0.024953701 0.78849977 -0.048455905 5.433759e-39 338.05002 275.05002
0.034984712 0.78766662 -0.04787368 3.3104065e-39 345.33334 274.66666
0.045337293 0.78607702 -0.046714097 4.506063e-39 352.89743 273.89743
0.054332457 0.78359532 -0.044119589 4.047596e-39 359.54764 272.11905
0.061542001 0.77999997 -0.043421295 3.9557563e-39 365 271.75
-0.033389427 0.7902 -0.040733092 1.2988026e-38 295.89999 269.39999
-0.024963958 0.79100001 -0.040912282 9.2080051e-39 302 269.5
-0.015249792 0.79068601 -0.042974506 9.0174986e-39 309 271
-0.0055477964 0.79123825 -0.043695994 6.6211465e-39 316 271.5
0.0043946044 0.7918573 -0.043300316 5.8853835e-39 323.16669 271.19049
0.01534412 0.79080015 -0.042518694 7.4624146e-39 331.06668 270.66669
0.024920518 0.79083347 -0.04309763 1.3912493e-38 337.97223 271.08334
0.034468316 0.79159993 -0.042561237 6.5332822e-39 344.83334 270.66669
0.044384316 0.79108334 -0.04172466 5.3296972e-39 352 270.08334
0.051942497 0.79000002 -0.040168867 5.4236949e-39 357.5 269
-0.09089046 0.74766672 -0.030587485 1.0145851e-38 250.66667 263.33334
-0.084096439 0.74485356 -0.033564921 6.2685671e-39 255.60974 265.70731
-0.075751819 0.74517304 -0.035393793 5.2464951e-39 262.01923 267.09616
-0.068165898 0.74766666 -0.038160715 5.3322181e-39 268 269.11111
0.07746841 0.74783325 -0.038351677 5.4312395e-39 379.08334 269.25
0.085383542 0.74726677 -0.036507431 5.2518929e-39 385.16669 267.86667
0.092365019 0.74900001 -0.030642424 9.1248324e-39 390.33334 263.33334
-0.072496362 0.75273341 -0.031585481 5.331858e-39 265.06668 263.93335
-0.066462584 0.7550416 -0.035687935 4.2312684e-39 269.79169 266.95834
0.068173982 0.755 -0.039712999 4.7822841e-39 371.5 270
0.075137347 0.75499994 -0.036101252 5.1485485e-39 376.75861 267.27585
0.084058948 0.75237924 -0.032385699 5.0646192e-39 383.72415 264.55173
0.090735003 0.75 -0.03156 6.2646043e-39 389 264
-0.065257154 0.76236373 -0.034627378 3.9554031e-39 271.18182 265.90909
0.075413935 0.76387501 -0.032311086 4.5978971e-39 376.3125 264.125
0.067531116 0.7763077 -0.03779782 3.9561136e-39 369.61539 267.76923
0.071809724 0.77535295 -0.0344663 4.2312712e-39 372.82352 265.35294
-0.063424207 0.78544462 -0.033965182 4.1379979e-39 273.94446 264.66666
-0.056045923 0.78647065 -0.036740579 4.7815737e-39 279.35294 266.64706
-0.049109988 0.78899997 -0.038734637 5.1499877e-39 284.5 268
0.058873426 0.78700006 -0.039095245 4.5968209e-39 362.66669 268.33334
0.065434545 0.78297228 -0.035040949 4.4135016e-39 367.66666 265.52777
-0.053850055 0.79286957 -0.032213151 5.4247781e-39 281.26086 263.17392
-0.044742931 0.79309815 -0.034757055 6.2534569e-39 287.82355 265
-0.034804527 0.79408145 -0.034801591 1.0589861e-38 295 265
-0.025091346 0.7950204 -0.034843024 7.6374564e-39 302 265
-0.015482089 0.79631114 -0.035272703 5.5144458e-39 308.91113 265.26666
-0.0058067627 0.79668427 -0.035984576 6.6211479e-39 315.8421 265.76315
0.0048900461 0.79712504 -0.037035104 7.7282171e-39 323.5 266.5
0.015583744 0.79586667 -0.036742393 1.0771372e-38 331.16669 266.33334
0.024867306 0.7962501 -0.036556892 1.5659517e-38 337.8125 266.1875
0.034882568 0.79578573 -0.036972661 1.1694407e-38 345.00003 266.5
0.044937268 0.79624999 -0.036556892 5.512292e-39 352.1875 266.1875
0.054779314 0.79479164 -0.035092302 5.3304202e-39 359.3125 265.1875
0.062497955 0.79411107 -0.032561738 5.4236977e-39 364.88889 263.38889
-0.014026667 0.80000001 -0.030858666 5.2382232e-39 310 262
-0.0048484448 0.80090916 -0.031404436 6.3442064e-39 316.54547 262.36365
0.0049115247 0.8005833 -0.03228398 8.1881092e-39 323.5 263
0.015074421 0.80073696 -0.032142103 1.0125648e-38 330.73685 262.89474
0.025754612 0.80035305 -0.031944904 1.8421772e-38 338.35294 262.76471
0.035131369 0.80147618 -0.032319445 1.4184747e-38 345 263
0.044421006 0.80058831 -0.031954393 6.5275229e-39 351.64706 262.76471
0.051898666 0.80000007 -0.030858666 5.3293384e-39 357 262
-0.091142274 0.74871433 -0.027191946 7.746235e-39 250.57144 260.71429
-0.085187651 0.74833328 -0.027212247 4.6079598e-39 255.07408 260.74075
-0.0787948 0.74900001 -0.028891427 5.2443357e-39 260 262
-0.09359476 0.7513333 -0.023395645 8.3916044e-39 248.95239 257.7619
-0.084600553 0.75275868 -0.022935839 4.6965569e-39 255.89655 257.3793
-0.076615721 0.75569552 -0.026956737 5.4236963e-39 262.17392 260.34784
0.079846799 0.759 -0.029277159 6.616127e-39 380 262
0.086097173 0.75648564 -0.026410254 5.7964347e-39 384.91428 259.91428
0.093051396 0.75477159 -0.024607783 6.173489e-39 390.3143 258.60001
-0.080537021 0.76133335 -0.020467829 5.3315063e-39 259.66669 255.33334
-0.075169936 0.76249999 -0.024184203 5.1478325e-39 263.77274 258.09091
-0.069420889 0.76633334 -0.029112345 3.4951481e-39 268.33334 261.66669
0.077536292 0.76466668 -0.02688376 6.5246488e-39 377.83334 260.05557
0.083375648 0.76275855 -0.022732204 6.9838305e-39 382.34482 257
0.095234714 0.76100004 -0.020181086 6.6359063e-39 391.375 255.125
-0.074017107 0.77407694 -0.022863872 5.0556354e-39 265.46155 256.84616
0.075568326 0.77520007 -0.026186619 5.9739932e-39 375.60001 259.26669
0.080849707 0.77499998 -0.020382499 6.6157655e-39 379.5 255
-0.071055256 0.78218752 -0.023741886 4.6875732e-39 268.1875 257.3125
-0.066707425 0.78594106 -0.027074976 4.4131457e-39 271.58823 259.64706
0.068902493 0.78600001 -0.028594676 5.3322195e-39 370 260.75
0.073977426 0.7833792 -0.024056461 5.3336558e-39 373.86206 257.51724
-0.064376064 0.79432261 -0.024210928 5.0570774e-39 273.7742 257.38708
-0.05515556 0.79645455 -0.028054288 5.5169709e-39 280.5 260.09091
-0.045550428 0.79799992 -0.029071433 7.3598003e-39 287.44446 260.77777
-0.035370342 0.79739994 -0.028940517 1.1324547e-38 294.70001 260.70001
-0.025184879 0.79799998 -0.029382359 5.702423e-39 302 261
0.06664218 0.79446155 -0.025875555 5.4233347e-39 367.84616 258.57693
0.071595028 0.79033339 -0.021709189 5.6088064e-39 371.66669 255.66667
-0.061249785 0.80000007 -0.021975111 5.2425476e-39 276.33334 255.66667
-0.054629263 0.80103445 -0.023293218 5.4244137e-39 281.10345 256.58621
-0.044799242 0.80159968 -0.024416965 1.1047606e-38 288.125 257.375
-0.035042841 0.80192286 -0.024332395 7.2625488e-39 295.07693 257.30771
-0.025309907 0.80195218 -0.024603652 5.2382218e-39 302 257.5
-0.015491916 0.80328578 -0.025346357 5.2375058e-39 309 258
-0.0056378609 0.80391806 -0.025367126 5.6974021e-39 316 258
0.0049373545 0.80437523 -0.025380844 8.0955521e-39 323.5 258
0.01550902 0.80416322 -0.025374208 1.5568775e-38 331 258
0.025373166 0.80395913 -0.025367582 1.4549207e-38 338 258
0.035262644 0.80446953 -0.02538519 1.2613116e-38 345 258
0.045110542 0.80404085 -0.025371086 8.9242407e-39 352 258
0.054924048 0.8032245 -0.025344176 5.3282636e-39 359 258
0.063064739 0.80196285 -0.024109242 5.5144514e-39 364.85187 257.14816
-0.094539642 0.75607055 -0.014922185 6.4540444e-39 248.68422 251.26315
-0.086689994 0.75653571 -0.017381985 4.6040025e-39 254.64287 253.10715
-0.083991997 0.76448482 -0.013929917 5.1489059e-39 257.33334 250.39395
-0.078860842 0.76666665 -0.018370843 5.2396722e-39 261.33334 253.66667
0.08743263 0.76588887 -0.015861109 7.3536906e-39 385.11111 251.81482
0.094704069 0.76247066 -0.014570477 5.6181573e-39 390.84314 250.90196
0.1004715 0.76114291 -0.012774034 1.0876188e-38 395.28574 249.57144
-0.080935329 0.77366674 -0.011755807 5.3304231e-39 260.33334 248.66667
-0.07780686 0.77438468 -0.016709805 5.2396694e-39 262.69232 252.30771
0.083634004 0.77515388 -0.014844933 6.6164801e-39 381.53848 250.92308
-0.075227775 0.78429037 -0.01476912 4.9634384e-39 265.29031 250.74193
0.077805214 0.78463989 -0.015903575 5.6073631e-39 376.56 251.56
0.08160802 0.78062499 -0.012488335 6.3402534e-39 379.625 249.125
-0.071714841 0.79246157 -0.014106241 4.7797646e-39 268.38461 250.15385
-0.068135031 0.79657143 -0.017656319 5.0563543e-39 271.21429 252.64287
0.069433168 0.79733336 -0.019105488 5.6062869e-39 369.66669 253.66667
0.074100487 0.79336357 -0.015489264 5.2425378e-39 373.27274 251.13637
-0.070133328 0.80000001 -0.011922667 5.055997e-39 270 248.5
-0.064053476 0.80249989 -0.014840956 5.7027999e-39 274.47501 250.55
-0.05499262 0.80424476 -0.015505509 6.7140652e-39 281 251
-0.045210015 0.80581629 -0.015533707 1.160113e-38 288 251
-0.035520978 0.80668157 -0.016033797 6.3423974e-39 294.88638 251.34091
-0.025452686 0.80654281 -0.016965056 5.3289797e-39 302 252
-0.015583625 0.80800015 -0.019124484 5.3297e-39 309 253.50002
-0.0056691109 0.80833334 -0.018423442 5.789239e-39 316 253
0.0038498195 0.80871433 -0.019142017 6.8030238e-39 322.71429 253.50002
0.015662016 0.80900002 -0.018026089 1.6765503e-38 331.04169 252.70834
0.025500478 0.80800015 -0.019124482 1.25209e-38 338 253.50002
0.03573446 0.80821735 -0.018174212 9.6617834e-39 345.21741 252.8261
0.045710966 0.80805272 -0.018566228 8.002269e-39 352.26315 253.10527
0.055444308 0.80800009 -0.01828647 5.2371442e-39 359.13638 252.9091
0.065407798 0.80564094 -0.016186319 5.5144486e-39 366.30771 251.46155
0.071927242 0.80214286 -0.013259207 5.5162492e-39 371.14288 249.42859
-0.034126878 0.81099999 -0.011375627 5.4211697e-39 296 248
-0.02559516 0.81099999 -0.012086603 5.1453045e-39 302 248.50002
-0.015656114 0.8117429 -0.014230551 5.4211753e-39 309 250
-0.0056885649 0.81121457 -0.013511563 6.3434848e-39 316 249.50002
0.0053549302 0.81185734 -0.014469631 6.6193528e-39 323.7619 250.16667
0.015597373 0.81164008 -0.013318603 1.4549931e-38 330.95999 249.36
0.02551152 0.81202716 -0.014003824 1.4828308e-38 337.91891 249.83784
0.035278346 0.81107706 -0.013345563 8.2792188e-39 344.80771 249.38463
0.045307592 0.81173342 -0.013756419 8.2799433e-39 351.83334 249.66669
0.055338316 0.81159276 -0.013438002 5.4208166e-39 358.88889 249.44444
0.063056685 0.81122214 -0.012326713 5.6048505e-39 364.33334 248.66667
-0.095150769 0.759 -0.0093154609 5.4380834e-39 248.5 247
-0.10111865 0.76269233 -0.0042133946 1.0789054e-38 244.38463 243.15385
-0.094633751 0.76284444 -0.0046609053 5.0671387e-39 249.24445 243.48889
-0.08778248 0.7659474 -0.0073495116 4.8751944e-39 254.63158 245.47368
0.096073419 0.76710802 -0.0064309891 5.2475741e-39 391.43243 244.78378
0.10191303 0.76480007 -0.0048858393 8.3879848e-39 396 243.65001
-0.085224718 0.77421445 -0.0047985604 5.2393036e-39 257.21429 243.53572
0.088095836 0.77572727 -0.0062423446 6.9841865e-39 384.77274 244.59091
0.09310542 0.77315789 -0.0033526502 6.6208003e-39 388.6842 242.47368
-0.081582837 0.78160006 -0.0042914585 5.0549124e-39 260.46667 243.13335
-0.078006409 0.78539991 -0.006953632 4.9630769e-39 263.35001 245.05
0.079435937 0.78566664 -0.00918396 6.0647455e-39 377.66669 246.66667
0.084129892 0.78310347 -0.0054420428 6.6161242e-39 381.27585 243.96552
-0.074992999 0.79447997 -0.0052386788 4.870884e-39 266.16 243.75999
0.07859768 0.79542857 -0.0055735954 5.8821521e-39 376.35715 244.00002
0.081609599 0.79159999 -0.0031903654 6.340975e-39 378.80002 242.3
-0.071579017 0.80235296 -0.0046330285 5.4247711e-39 269.11765 243.29411
-0.065685347 0.80682039 -0.00645321 5.9793798e-39 273.56412 244.5641
-0.056494653 0.80842865 -0.0089089377 6.806251e-39 280.14288 246.28572
-0.049645633 0.80900002 -0.0099291261 1.1601493e-38 285 247
0.068687268 0.80774999 -0.0077878684 5.9768631e-39 368.5 245.5
0.074181214 0.80324322 -0.0058619147 5.6981224e-39 372.67569 244.16217
-0.063007608 0.81119996 -0.0025598665 5.7010048e-39 275.70001 241.8
-0.054665245 0.81263167 -0.0042714891 7.7296408e-39 281.63159 243
-0.045010369 0.81304264 -0.0056351395 9.8497605e-39 288.42554 243.95744
-0.035057902 0.81394136 -0.0056735477 5.8821451e-39 295.4314 243.98041
-0.024768356 0.81375992 -0.005727964 5.2371442e-39 302.63998 244.01999
-0.014705813 0.81557149 -0.0057128612 5.4215327e-39 309.71429 244
-0.0052316682 0.81554538 -0.0058737067 6.0668993e-39 316.34091 244.11365
0.0045150402 0.81574506 -0.0058533475 6.8963012e-39 323.15686 244.09805
0.01460848 0.81620836 -0.0056566913 1.3169537e-38 330.20834 243.95834
0.024598412 0.81712759 -0.0055415039 1.5472957e-38 337.1702 243.87233
0.034745324 0.81578428 -0.0057971743 1.1601489e-38 344.29413 244.05884
0.044713501 0.81538314 -0.0056203278 8.7369572e-39 351.27658 243.93616
0.054689512 0.81611997 -0.0057742875 5.4222515e-39 358.22 244.03999
0.064343147 0.81321752 -0.0051743528 5.6984839e-39 365.13043 243.63043
0.071453154 0.81099999 -0.0024884185 5.9736303e-39 370.25 241.75
-0.10331697 0.76732349 0.0043554869 1.134259e-38 243.20589 236.76471
-0.096223831 0.7677418 0.0025206713 4.9753088e-39 248.51613 238.12903
-0.10065945 0.77233332 0.0090284981 5.5338958e-39 245.66667 233.33334
-0.093877085 0.77274203 0.0066885706 5.0635486e-39 250.70967 235.06451
-0.088090576 0.77568179 0.0032789726 5.5155346e-39 255.22728 237.59091
0.095574558 0.77521276 0.0038776272 6.2566967e-39 390.31912 237.14893
0.10288557 0.77375704 0.0050278022 7.6511443e-39 395.83786 236.2973
-0.090261593 0.77999997 0.0095731998 5.8850332e-39 254 233
-0.083687745 0.7836892 0.0053755627 5.0549152e-39 259.0889 236.0889
0.087768413 0.78596163 0.0038222666 7.9083274e-39 383.69232 237.23077
0.092136219 0.7815882 0.0072566336 7.9115756e-39 387.23529 234.70589
-0.080439426 0.79100001 0.0055519305 4.7790485e-39 262 236
-0.07814607 0.79457146 0.0041154907 4.6868543e-39 263.90475 237.04762
0.079227433 0.79799992 0.0026234249 6.1569453e-39 376.625 238.125
0.083417319 0.7930001 0.0055613886 6.2491466e-39 380 236
-0.073590294 0.80362779 0.0053095818 4.687213e-39 267.76746 236.23256
-0.068919323 0.80880004 0.0029787382 5.056713e-39 271.39999 237.90001
0.076680683 0.80442846 0.0051579061 6.0647511e-39 374.37143 236.34286
-0.064204291 0.81421763 0.0047832462 5.241826e-39 275.02176 236.65218
-0.05497802 0.81718594 0.0036035487 5.7921159e-39 281.6279 237.48837
-0.04447189 0.81820017 0.0028712589 1.1138354e-38 289 238
-0.034657612 0.81845462 0.0026976897 6.6207737e-39 295.84848 238.12122
-0.024719978 0.81823093 0.0020429709 5.2375058e-39 302.76926 238.57693
-0.014470262 0.81900018 0.00066276005 5.3307748e-39 309.9231 239.53847
-0.0057439199 0.81900007 0.00028719599 5.6066484e-39 316 239.8
0.0043079401 0.81900012 -0 7.4505484e-39 323 240.00002
0.038053472 0.81900001 0.00071798998 1.0392845e-38 346.5 239.5
0.043877169 0.81900018 0.0012764267 6.6175381e-39 350.55557 239.11111
0.055404898 0.81900018 0.00071799004 5.5130094e-39 358.58334 239.5
0.065452121 0.81622231 0.0041887783 5.9747107e-39 365.74075 237.07408
0.072366588 0.81157142 0.0054891855 5.7892432e-39 370.85715 236.14287
-0.052232806 0.82100004 0.0080199968 5.5158933e-39 283.71429 234.42859
-0.044663157 0.82171434 0.0079246908 1.0674873e-38 289 234.50002
-0.03415855 0.82249999 0.0076623959 5.4218942e-39 296.3125 234.6875
-0.024131583 0.8222174 0.0068965466 5.3304174e-39 303.26086 235.21739
-0.014380402 0.82249987 0.005652017 4.5056902e-39 310.02777 236.08333
-0.0049503241 0.82245928 0.0048764939 5.5140912e-39 316.56757 236.62163
0.0043314854 0.82323819 0.0050577414 7.7282157e-39 323 236.5
0.014435657 0.82328576 0.0043374258 1.3905998e-38 330 237
0.024549065 0.82361227 0.0043394277 1.2337957e-38 337 237
0.034316469 0.82313311 0.004657595 1.3718743e-38 343.77777 236.77779
0.04511762 0.82325822 0.0061033531 5.605561e-39 351.25806 235.77419
0.054487772 0.82191861 0.0054940474 5.5130136e-39 357.81082 236.18919
0.060938265 0.82099998 0.0081570912 5.698128e-39 362.33334 234.33334
-0.1018173 0.77488232 0.014070809 9.4068409e-39 245.05882 229.64706
-0.095818117 0.77518755 0.01350954 4.5143334e-39 249.5 230.0625
0.09903878 0.77733338 0.011358093 4.515411e-39 392.66669 231.66667
0.10292698 0.77600002 0.013811006 9.6798167e-39 395.64999 229.85001
-0.10257 0.77999997 0.018690534 1.1065643e-38 245 226.33334
-0.093317226 0.78079164 0.016999003 4.9706327e-39 251.83334 227.58334
-0.086080655 0.7854389 0.014781114 5.2393078e-39 257.48779 229.26828
0.08913032 0.78814286 0.015201401 1.179676e-38 384.50003 229.00002
0.095126271 0.78271699 0.015306004 6.9964296e-39 389.32077 228.84906
0.10195195 0.78049994 0.017791074 6.8228283e-39 394.5 227
-0.081489801 0.79133332 0.016281687 5.0541949e-39 261.26669 228.26668
-0.078796804 0.79542869 0.015343169 4.8705239e-39 263.5 229.00002
0.084392615 0.79312825 0.015083518 7.3544263e-39 380.69232 229.15385
-0.074740313 0.80347055 0.015413451 4.7790471e-39 266.94119 229.05882
0.077855803 0.8033793 0.015104964 6.5239328e-39 375.27585 229.27586
0.081053972 0.80049998 0.018597607 6.7997994e-39 377.75 226.75
-0.070932858 0.81209087 0.015531345 4.7783311e-39 270.18182 229.09091
-0.065817676 0.81695342 0.014222917 4.9648789e-39 274.04651 230.06976
-0.057439201 0.81900001 0.01005186 5.4254983e-39 280 233
0.06709601 0.81726086 0.014017595 6.4374853e-39 366.82608 230.21739
0.072567061 0.81256258 0.015760165 6.2487836e-39 370.9375 228.9375
-0.061192907 0.82120001 0.015838912 5.2418288e-39 277.5 229
-0.054683473 0.82360923 0.014726662 5.5169723e-39 282.13043 229.80435
-0.044854522 0.82524496 0.014473085 9.478125e-39 289 230
-0.034766734 0.82622439 0.014489762 1.1508573e-38 296 230
-0.024731314 0.82670832 0.014409373 5.6991958e-39 302.9375 230.0625
-0.014711653 0.827865 0.013301401 4.2316187e-39 309.86487 230.83784
-0.0048988131 0.82793754 0.013339357 5.4226131e-39 316.625 230.8125
0.0042295046 0.82847077 0.012989413 7.8193267e-39 322.91177 231.05882
0.014648944 0.82817656 0.012985288 1.6762981e-38 330.08823 231.05882
0.024678865 0.82797134 0.013067489 1.5842817e-38 337 231
0.03518711 0.82823074 0.013555872 7.5391287e-39 344.23077 230.66667
0.044991288 0.82777542 0.014517459 5.6974021e-39 351 230
0.055042207 0.82618386 0.014489978 6.712633e-39 358 230
0.062525891 0.82199997 0.014691654 6.9892213e-39 363.38464 229.80769
-0.02039828 0.83099997 0.018941259 5.6156265e-39 306 227
-0.013973045 0.83166665 0.018349364 4.6893598e-39 310.41669 227.41667
-0.0056876387 0.83159989 0.018372128 5.5140856e-39 316.10001 227.40001
0.0046659713 0.83140016 0.01807617 6.7126218e-39 323.20001 227.60001
0.014289785 0.83166671 0.018082244 1.1508929e-38 329.80002 227.60001
0.024787875 0.83157146 0.018225778 1.362581e-38 337 227.50002
0.03368872 0.83179998 0.018376691 6.3423946e-39 343.10001 227.40001
-0.10150766 0.78130001 0.024934331 1.0606465e-38 245.90001 221.8
-0.095252469 0.78243637 0.024621898 4.5150509e-39 250.56363 222.05453
-0.088357471 0.78742087 0.024054164 4.9666782e-39 256 222.57895
0.089919694 0.78899997 0.021442389 7.8150331e-39 385 224.5
0.095751613 0.78661913 0.024435705 4.9742242e-39 389.42859 222.28572
0.10182233 0.78328568 0.023943689 9.5887e-39 394.14285 222.57143
-0.083722115 0.79302704 0.025443615 5.3311461e-39 259.78378 221.70271
-0.079466581 0.7971428 0.024161436 5.1456731e-39 263.14288 222.71429
0.086302564 0.79468572 0.024684124 7.1711e-39 381.94287 222.28572
0.091187946 0.79000008 0.026894674 6.0737376e-39 385.83334 220.58334
-0.075180665 0.80395442 0.025661862 5.1456717e-39 266.65909 221.79546
0.077042341 0.80628568 0.025447126 6.6161256e-39 374.50003 222.00002
0.081632115 0.80142856 0.025963193 6.891995e-39 378.09525 221.52382
-0.071154945 0.81166661 0.02443007 4.869805e-39 270 222.83334
-0.065970577 0.81686968 0.024721235 4.8701652e-39 273.93478 222.73914
0.067403555 0.81795257 0.024381436 6.6182766e-39 367 223
0.072001897 0.81321424 0.025308175 6.5242887e-39 370.50003 222.25002
-0.06081105 0.82144445 0.023682857 5.0567158e-39 277.77777 223.55556
-0.055000767 0.82557148 0.024608392 5.3333027e-39 282 223
-0.046566769 0.828143 0.023388898 5.7013594e-39 287.92859 223.89287
-0.034884319 0.82900006 0.020349188 1.3166305e-38 296 226.00002
-0.025436483 0.829 0.020349186 1.1510347e-38 302.5 226
0.045349613 0.829 0.020349188 6.8037567e-39 351.20001 226
0.056459974 0.82814306 0.024351645 8.3724935e-39 358.88571 223.22858
0.062729008 0.82249999 0.024515983 7.2654341e-39 363.50003 223.00002
-0.043124568 0.83176196 0.026529273 5.2436126e-39 290.42859 221.80952
-0.03504562 0.83285725 0.025557382 6.3488784e-39 296 222.5
-0.024812127 0.83355302 0.025036518 8.2856886e-39 303.02127 222.87233
-0.01465214 0.83561206 0.024910457 5.429436e-39 310 223
-0.0051271231 0.83557123 0.024910189 5.6995573e-39 316.5 223
0.0043961797 0.83581644 0.024917407 6.159455e-39 323 223
0.014653644 0.83573437 0.024914749 6.4428564e-39 330 223
0.024908463 0.83565307 0.024912182 7.8211148e-39 337 223
0.035158049 0.83553058 0.024908168 6.3431316e-39 344 223
0.04527358 0.83363622 0.025349334 8.4636087e-39 350.97729 222.6591
0.052140508 0.83100009 0.02560192 8.7448703e-39 355.78574 222.42859
-0.10066091 0.78466672 0.032564662 1.2263469e-38 246.83334 216.33334
-0.095485874 0.7869069 0.034016296 5.3484199e-39 250.7907 215.34883
-0.089919694 0.78899997 0.032509428 3.9615184e-39 255 216.5
0.098911658 0.78899997 0.030434359 5.4402554e-39 391.5 218
-0.091447286 0.79025 0.037757158 4.3313771e-39 254 212.75
-0.084904768 0.79391843 0.034800727 5.1510737e-39 259 215
-0.079752117 0.79799998 0.035445385 5.4237019e-39 263 214.66667
0.087455057 0.79661536 0.034758214 6.0730216e-39 382.61539 215.11539
0.094707794 0.79146171 0.034722205 5.5306476e-39 388.25 214.98077
0.10124098 0.79100001 0.032597974 1.1802474e-38 393 216.5
-0.074944921 0.80444884 0.035290599 5.2385876e-39 266.85715 214.97958
0.077070154 0.80657154 0.035355091 6.893081e-39 374.50003 215.00002
0.082479209 0.80186653 0.035288759 7.1711029e-39 378.66669 214.90001
-0.071097665 0.81099999 0.031282969 5.1467479e-39 270 218
-0.065745592 0.81560397 0.034909461 5.0538348e-39 274.01886 215.58492
0.06754677 0.81714815 0.035177905 6.5242929e-39 367.14816 215.44444
0.072168671 0.81220001 0.035029843 6.6164871e-39 370.67999 215.39999
-0.060458433 0.82100004 0.033827934 4.6861326e-39 278 216.5
-0.055039268 0.8261838 0.034765594 4.9634384e-39 282 216
0.055566072 0.8271364 0.034903489 6.8052014e-39 358.31821 215.93182
0.062525623 0.82199985 0.034311317 6.340982e-39 363.38464 216.19232
-0.04528356 0.83320403 0.035062294 5.242542e-39 289 216
-0.035159118 0.83557117 0.035162341 4.7840806e-39 296 216
-0.025338585 0.83704454 0.035031289 4.6000509e-39 302.73334 216.13333
-0.01478106 0.83857876 0.032192677 8.6566474e-39 309.94736 218.10527
-0.0041905544 0.83879989 0.033017628 6.16412e-39 317.14999 217.55
0.0037577832 0.83877784 0.033281069 5.8825136e-39 322.55557 217.37038
0.014587879 0.83899987 0.031504922 4.3223808e-39 329.91669 218.58334
0.026097137 0.83821231 0.034116048 5.8936525e-39 337.7576 216.78789
0.035228543 0.83720446 0.035229973 7.0806981e-39 344 216
0.045336723 0.83422428 0.035103731 7.6367529e-39 351 216
0.051287103 0.83099997 0.03409427 6.9899556e-39 355.20001 216.60001
-0.020643746 0.84100002 0.03760111 3.1263725e-39 306 214.5
-0.014709708 0.84179997 0.037392519 5.79895e-39 310.03336 214.66667
-0.006037205 0.84163642 0.037496865 5.0620982e-39 315.90909 214.59091
0.005227962 0.84099978 0.037869208 6.8073482e-39 323.54547 214.31819
0.014803961 0.84202701 0.036671638 6.2574044e-39 330.02704 215.16217
0.022769555 0.84124988 0.037797045 5.157884e-39 335.4375 214.375
-0.093274884 0.79206681 0.043101378 5.9026755e-39 252.83334 208.96667
-0.08509291 0.79563272 0.04464259 4.6040095e-39 259 208
-0.079752125 0.79799998 0.04477312 5.0585193e-39 263 208.00002
0.088946603 0.79799998 0.042374562 4.4224952e-39 383.57144 209.71429
0.094773069 0.79703027 0.043280765 7.8369831e-39 387.81821 209.0303
-0.074791126 0.804959 0.045163576 5.6077358e-39 267 208
0.077866122 0.80747622 0.045305632 7.4476883e-39 375 208
0.084514305 0.80259168 0.045376834 5.4312521e-39 380.06122 207.7551
0.092224166 0.80100006 0.048219588 7.6536722e-39 385.66669 205.66667
-0.064939484 0.81429845 0.045058727 5.3297042e-39 274.50879 208.4386
-0.058875177 0.81900001 0.048105329 5.3286266e-39 279 206.5
0.066633038 0.81652397 0.045128871 6.5257334e-39 366.54764 208.4762
0.073249392 0.81121451 0.045513775 7.1714672e-39 371.50003 208.00002
-0.054769356 0.82491493 0.044681877 5.1453115e-39 282.12766 209.10637
-0.047442466 0.82833344 0.046796463 5.0563487e-39 287.33334 207.77779
0.049056072 0.829 0.048329316 4.4181763e-39 353.75 206.75
0.055218045 0.82610637 0.045053653 6.1594649e-39 358.12766 208.89362
0.061543517 0.82140005 0.043588802 6.5260894e-39 362.73334 209.73334
-0.043817662 0.83216125 0.044193782 4.8759147e-39 289.96774 209.70967
-0.035150252 0.83536696 0.045403287 5.2425406e-39 296 209
-0.026047885 0.83768421 0.045335703 5.2414672e-39 302.26315 209.13158
0.028504884 0.83869219 0.045923844 5.8864835e-39 339.38461 208.76924
0.035206284 0.83671427 0.045476776 8.3819158e-39 344 209
0.044938248 0.83344442 0.045005884 6.6283687e-39 350.75555 209.20001
0.050995696 0.83099997 0.041525066 6.3438547e-39 355 211.5
-0.021030793 0.84175003 0.045015953 5.0581564e-39 305.75 209.5
-0.014778429 0.84290487 0.04507608 4.6908102e-39 310 209.5
-0.005173211 0.84300029 0.045080837 8.7474067e-39 316.5 209.5
0.0044328449 0.84261906 0.045061633 6.4410768e-39 323 209.5
0.014780599 0.84300017 0.045080837 5.6095323e-39 330 209.5
0.023717107 0.84200001 0.044732273 5.1507163e-39 336.06668 209.70001
-0.090717465 0.796 0.050243519 7.1008642e-39 255 204
-0.085684143 0.79729408 0.051477443 4.6994478e-39 258.70587 203.17647
-0.079752117 0.79799998 0.050369754 4.5107335e-39 263 204
-0.084861949 0.80117655 0.056438863 6.544431e-39 259.58823 199.82353
-0.075001948 0.80369198 0.054875497 5.2443469e-39 266.76923 201.05769
-0.068351403 0.80900002 0.056294605 5.8843199e-39 271.8125 200.3125
0.077612907 0.80804354 0.055622362 5.7089292e-39 374.78262 200.73914
0.084501639 0.80442554 0.054677282 6.1760198e-39 379.91489 201.23404
0.091045044 0.80299997 0.052329697 9.5876084e-39 384.66669 202.83334
-0.063300215 0.8124637 0.054579679 5.5155402e-39 275.56097 201.68292
-0.057452269 0.81736368 0.055756956 5.5151786e-39 279.90909 201.09091
0.058875181 0.81900007 0.054854434 7.8186695e-39 361 201.8
0.0652164 0.81645459 0.054708086 7.545307e-39 365.56363 201.78181
0.073121212 0.81100017 0.055128045 7.1736308e-39 371.4231 201.23077
-0.052959125 0.8232758 0.054202128 5.3300671e-39 283.31033 202.44827
-0.045089953 0.82623404 0.055200551 5.1478283e-39 288.87234 201.89362
-0.037760172 0.82833338 0.058254495 4.4135016e-39 294 199.88889
0.046144795 0.82782358 0.056092944 3.2250492e-39 351.79413 201.35294
0.054346036 0.82313627 0.054806374 5.4280473e-39 357.65909 202.02274
0.060458437 0.82099998 0.057579465 1.1061365e-38 362 200
-0.040796559 0.83099997 0.051724207 4.507844e-39 292 204.5
-0.034395836 0.83304989 0.054806959 4.9634384e-39 296.45001 202.47501
-0.025151115 0.83559567 0.055387828 5.3315049e-39 302.82977 202.19148
-0.015765876 0.8386665 0.057347443 8.1924224e-39 309.27777 201
-0.0077229948 0.83899999 0.058474101 8.09984e-39 314.75 200.25
0.017349234 0.83859998 0.058519598 4.4131429e-39 331.80002 200.2
0.025452107 0.83714646 0.054913618 5.2411085e-39 337.34146 202.58536
0.03525994 0.83431882 0.055396978 5.4237019e-39 344.10638 202.12766
0.042585194 0.83180016 0.053279825 3.4069069e-39 349.20001 203.46667
-0.020643746 0.84100002 0.051609367 5.5162619e-39 306 205
-0.014142103 0.84190315 0.05290094 6.7158728e-39 310.41934 204.16129
-0.0048968759 0.84242117 0.054221142 7.5474019e-39 316.6842 203.28947
0.0044333935 0.84287733 0.054679636 6.1637766e-39 323 203
0.0144652 0.84231812 0.054172345 5.6116917e-39 329.79547 203.31819
0.021493362 0.84128582 0.051626403 5.8893506e-39 334.57144 205.00002
-0.082790576 0.802423 0.06331227 9.3113761e-39 261.15387 195
-0.074760728 0.80457133 0.064893812 5.8972651e-39 267 194
-0.067526653 0.80884624 0.065236814 4.8791601e-39 272.38461 194
0.076949 0.80691314 0.06366574 6.8213864e-39 374.3913 195
0.081298552 0.80499995 0.062949926 8.665292e-39 377.60001 195.40001
-0.06284602 0.81143481 0.065445676 5.1517911e-39 275.82608 194
-0.055396937 0.8169623 0.064863145 5.8843213e-39 281.32077 194.71698
-0.048464328 0.81900001 0.067850053 6.0672762e-39 286.25 192.75
0.057186462 0.81833351 0.065385379 6.8984816e-39 359.85715 194.42857
0.064604007 0.81566656 0.064354934 6.812774e-39 365.17648 195
0.072810173 0.81235999 0.066318922 5.9919887e-39 371.12 193.44
-0.050861862 0.82099998 0.060938265 5.7921257e-39 284.66669 197.66667
-0.044412013 0.82366693 0.064696446 5.6995699e-39 289.24445 195.20001
-0.035159357 0.8271777 0.065552063 5.7906879e-39 295.75555 194.8
-0.02575057 0.82845467 0.068929911 6.0672734e-39 302.27274 192.54546
0.02834351 0.829 0.069768637 6.8984844e-39 339.5 192
0.036067426 0.82854307 0.066118352 6.2509612e-39 344.82858 194.48572
0.044874135 0.82569402 0.065145113 8.6743654e-39 351 195
0.05271766 0.82135701 0.064186767 8.4802337e-39 356.60715 195.42857
-0.030961674 0.83099997 0.062287603 5.6059337e-39 298.75 197.25
-0.024345161 0.83279985 0.064427063 5.8828808e-39 303.32501 195.875
-0.014741358 0.83587998 0.064597219 6.7162147e-39 309.94 195.92
-0.005281128 0.83674973 0.064767696 6.2494997e-39 316.39999 195.85001
0.0045047626 0.83699977 0.065181591 4.3195221e-39 323.06976 195.58139
0.014739324 0.83579993 0.064591467 4.0443786e-39 330.06 195.92
0.024698332 0.83322221 0.064815983 4.6890319e-39 336.90741 195.62964
0.031924471 0.83237511 0.063299932 6.2513144e-39 341.875 196.625
-0.0022118301 0.84100002 0.060456682 5.9747107e-39 318.5 199
0.0036863834 0.84100002 0.060456686 4.6886578e-39 322.5 199
-0.073869251 0.80790007 0.072527163 9.3120963e-39 267.85001 188.8
-0.068521887 0.80900007 0.073759228 7.3734658e-39 271.69232 188
-0.064125597 0.81170607 0.075681277 6.6355392e-39 274.94119 186.82353
-0.054899652 0.81611109 0.074406087 4.9706369e-39 281.62964 188
-0.047303621 0.81880015 0.075441636 5.6109714e-39 287.05002 187.45
0.05541433 0.81848729 0.075066604 5.9876741e-39 358.61539 187.69231
0.06419497 0.81555301 0.074173436 6.1763771e-39 364.89362 188.12766
0.071510702 0.81571418 0.072840847 8.0202869e-39 370.00003 189.07144
-0.042730302 0.82182753 0.074380569 5.8850388e-39 290.34482 188.3793
-0.034683436 0.82430631 0.075152159 6.1605467e-39 296 188
-0.024744755 0.82720822 0.075508721 6.1605439e-39 302.9375 187.9375
-0.015573357 0.82900023 0.078005202 5.4269333e-39 309.28571 186.33334
-0.0054176408 0.829 0.079282545 6.3420596e-39 316.27274 185.45454
0.0043605403 0.82900012 0.079216473 6.7133603e-39 323 185.50002
0.015672665 0.82900023 0.077794559 7.1732651e-39 330.78262 186.47827
0.024885057 0.8285653 0.075825773 7.1739867e-39 337.13043 187.80435
0.03476616 0.82626528 0.075330071 7.0817939e-39 344 188
0.044697929 0.82242846 0.074981034 7.7325597e-39 351 188
0.051245719 0.82100004 0.073125921 6.2545416e-39 355.60001 189.2
-0.02039828 0.83099997 0.071393974 5.4251424e-39 306 191
-0.013813069 0.8318823 0.073311962 5.4265773e-39 310.52942 189.73529
-0.0050071888 0.83224303 0.073823892 6.2502242e-39 316.56757 189.40541
0.0043791593 0.83271402 0.073726721 6.2541912e-39 323 189.5
0.013628495 0.83193737 0.073158219 6.7151736e-39 329.34375 189.84375
0.0218553 0.83100003 0.071393982 6.5322215e-39 335 191
-0.06269148 0.81513333 0.081846416 9.9563853e-39 276.13336 182.73334
-0.054267891 0.81743228 0.083361968 7.46566e-39 282.13513 181.83784
-0.047361795 0.81857151 0.082731172 4.8838236e-39 287 182.35715
0.054156806 0.81847841 0.082110591 7.2834407e-39 357.73914 182.78261
0.061198786 0.81650001 0.080528401 9.3117432e-39 362.75 183.75
-0.054775715 0.82420009 0.089018144 1.0879426e-38 282.10001 178.40001
-0.043472499 0.82099962 0.085711122 5.6210299e-39 289.79999 180.45714
-0.034608655 0.82251042 0.085085936 5.3408529e-39 296 181
-0.024596222 0.82528591 0.085372396 5.4301745e-39 303 181
-0.014512807 0.82773465 0.085623831 5.5205708e-39 310 181
-0.0050812014 0.8280952 0.085660778 5.9775987e-39 316.5 181
0.0043584509 0.82861698 0.0855304 6.2556276e-39 323 181.12766
0.014515525 0.82793868 0.085644707 6.3492567e-39 330 181
0.024647465 0.82695901 0.085545175 6.0766313e-39 337 181
0.034621254 0.82279617 0.085113205 5.7114417e-39 344 181
0.044518743 0.82256532 0.084813267 6.2678455e-39 350.86957 181.19565
0.050861862 0.82099998 0.085889369 9.1273505e-39 355.33334 180.33334
-0.05365403 0.82699996 0.092354275 1.0879426e-38 283 176.30769
-0.044772364 0.82366663 0.092427224 1.0602118e-38 289 176
-0.034204286 0.82300001 0.09304636 8.2964997e-39 296.2963 175.51852
-0.024486829 0.82407713 0.094360478 7.4660243e-39 303.0513 174.69231
-0.014585213 0.82573175 0.094738111 8.0195638e-39 309.92682 174.56097
-0.0052139927 0.82635987 0.093597069 7.741535e-39 316.39999 175.39999
0.0044926051 0.82770962 0.093488336 7.0954397e-39 323.09677 175.58064
0.014065066 0.82699984 0.093815401 5.8068701e-39 329.70001 175.3
0.023876779 0.82699996 0.092317097 6.2692944e-39 336.46667 176.33334
0.031175142 0.82700002 0.091350421 7.8373404e-39 341.5 177
0.042775195 0.82700002 0.091350421 1.0048947e-38 349.5 177
