# .PCD v0.7 - Point Cloud Data file format
VERSION 0.7
FIELDS x y z
SIZE 4 4 4
TYPE F F F
COUNT 1 1 1
WIDTH 1304
HEIGHT 1
VIEWPOINT 0 0 0 1 0 0 0
POINTS 1304
DATA ascii
-0.069575638 0.012808077 0.03497687
-0.068462171 0.015628256 0.03497687
-0.067070857 0.015628256 0.032564294
-0.067189604 0.018448435 0.03497687
-0.067070857 0.018448435 0.034774713
-0.067070857 0.018712066 0.03497687
-0.072711207 0.012076572 0.040617224
-0.071048945 0.012808077 0.037797045
-0.069891036 0.012808077 0.035588838
-0.069985047 0.015628256 0.037797045
-0.069891036 0.015628256 0.03760786
-0.07247588 0.012808077 0.040617224
-0.071436927 0.015628256 0.040617224
-0.069891036 0.015872627 0.037797045
-0.068829067 0.018448435 0.037797045
-0.067534462 0.021268614 0.037797045
-0.067070857 0.021268614 0.036982559
-0.070280589 0.018448435 0.040617224
-0.069891036 0.018448435 0.039842322
-0.069891036 0.019417778 0.040617224
-0.069108203 0.021268614 0.040617224
-0.066842571 0.015628256 0.032156691
-0.065485463 0.018448435 0.032156691
-0.064250678 0.018448435 0.030100133
-0.064250678 0.020923018 0.032156691
-0.064080298 0.021268614 0.032156691
-0.065849297 0.021268614 0.03497687
-0.064250678 0.021268614 0.032435782
-0.076055139 0.001527369 0.043437403
-0.075531386 0.001527369 0.041979723
-0.07575459 0.0043475479 0.043437403
-0.075531386 0.0043475479 0.042831827
-0.077075176 0.001527369 0.046257578
-0.076832414 0.0043475479 0.046257578
-0.075531386 0.005711183 0.043437403
-0.075249642 0.0071677268 0.043437403
-0.074573234 0.0099879056 0.043437403
-0.076350652 0.0071677268 0.046257578
-0.075531386 0.0071677268 0.044177003
-0.075703919 0.0099879056 0.046257578
-0.075531386 0.0099879056 0.045811042
-0.077998161 0.001527369 0.049077757
-0.077815711 0.0043475479 0.049077757
-0.077416882 0.0071677268 0.049077757
-0.076748133 0.0099879056 0.049077757
-0.0781698 0.0071677268 0.051897936
-0.077622026 0.0099879056 0.051897936
-0.073747218 0.012808077 0.043437403
-0.072711207 0.012808077 0.041142307
-0.072840676 0.015628256 0.043437403
-0.072711207 0.015628256 0.043162517
-0.075531386 0.010691464 0.046257578
-0.074975714 0.012808077 0.046257578
-0.074093059 0.015628256 0.046257578
-0.072711207 0.01601541 0.043437403
-0.073012993 0.018448435 0.046257578
-0.072711207 0.018448435 0.045484222
-0.072711207 0.019173004 0.046257578
-0.0717723 0.018448435 0.043437403
-0.070483491 0.021268614 0.043437403
-0.069891036 0.021268614 0.042184256
-0.071748257 0.021268614 0.046257578
-0.075943194 0.012808077 0.049077757
-0.075531386 0.012808077 0.047802113
-0.075531386 0.014242299 0.049077757
-0.075106725 0.015628256 0.049077757
-0.076830342 0.012808077 0.051897936
-0.075944573 0.015628256 0.051897936
-0.075531386 0.015628256 0.050484642
-0.0740344 0.018448435 0.049077757
-0.072790399 0.021268614 0.049077757
-0.072711207 0.021268614 0.048841961
-0.075531386 0.016930118 0.051897936
-0.074995786 0.018448435 0.051897936
-0.073783338 0.021268614 0.051897936
-0.067070857 0.022285797 0.037797045
-0.067790389 0.024088793 0.040617224
-0.067070857 0.024088793 0.039278347
-0.067070857 0.025614992 0.040617224
-0.062544316 0.024088793 0.032156691
-0.061430499 0.024088793 0.030482046
-0.061430499 0.026040152 0.032156691
-0.06439694 0.024088793 0.03497687
-0.064250678 0.024088793 0.034745093
-0.064250678 0.024372943 0.03497687
-0.062847361 0.026908971 0.03497687
-0.061430499 0.026908971 0.032908622
-0.060935535 0.026908971 0.032156691
-0.061430499 0.029300317 0.03497687
-0.059251938 0.02972915 0.032156691
-0.05861032 0.02972915 0.031182863
-0.05861032 0.030805446 0.032156691
-0.057488881 0.032549322 0.032156691
-0.055790141 0.032549322 0.029867474
-0.061178736 0.02972915 0.03497687
-0.059388887 0.032549322 0.03497687
-0.05861032 0.032549322 0.033805352
-0.06620799 0.024088793 0.037797045
-0.064698905 0.026908971 0.037797045
-0.064250678 0.026908971 0.037082087
-0.066416696 0.026908971 0.040617224
-0.064250678 0.027736023 0.037797045
-0.06309665 0.02972915 0.037797045
-0.061430499 0.02972915 0.035349566
-0.061430499 0.03233242 0.037797045
-0.064775825 0.02972915 0.040617224
-0.064250678 0.02972915 0.039680175
-0.064250678 0.030621499 0.040617224
-0.063019514 0.032549322 0.040617224
-0.061430499 0.032549322 0.038019754
-0.061288502 0.032549322 0.037797045
-0.055790141 0.034857675 0.032156691
-0.05861032 0.033727929 0.03497687
-0.057455521 0.035369501 0.03497687
-0.055790141 0.035369501 0.032682978
-0.055790141 0.037491024 0.03497687
-0.061430499 0.034723654 0.040617224
-0.059253871 0.035369501 0.037797045
-0.05861032 0.035369501 0.036744002
-0.05861032 0.036238343 0.037797045
-0.057079226 0.038189679 0.037797045
-0.055790141 0.038189679 0.035808008
-0.06093004 0.035369501 0.040617224
-0.058643598 0.038189679 0.040617224
-0.05861032 0.038189679 0.040552277
-0.055790141 0.039683431 0.037797045
-0.05861032 0.038231179 0.040617224
-0.056187831 0.041009858 0.040617224
-0.055790141 0.041009858 0.039875891
-0.055790141 0.041437462 0.040617224
-0.069891036 0.022597693 0.043437403
-0.069225714 0.024088793 0.043437403
-0.067847028 0.026908971 0.043437403
-0.067070857 0.026908971 0.041841365
-0.070367314 0.024088793 0.046257578
-0.069891036 0.024088793 0.045014612
-0.069891036 0.025135107 0.046257578
-0.069043912 0.026908971 0.046257578
-0.067070857 0.028413318 0.043437403
-0.067489274 0.02972915 0.046257578
-0.067070857 0.02972915 0.04511179
-0.067070857 0.030468293 0.046257578
-0.072711207 0.021446802 0.049077757
-0.072711207 0.023529574 0.051897936
-0.071435951 0.024088793 0.049077757
-0.069965482 0.026908971 0.049077757
-0.069891036 0.026908971 0.04882475
-0.072430395 0.024088793 0.051897936
-0.070819572 0.026908971 0.051897936
-0.069891036 0.027051389 0.049077757
-0.068357475 0.02972915 0.049077757
-0.067070857 0.031904913 0.049077757
-0.069891036 0.028507307 0.051897936
-0.069175899 0.02972915 0.051897936
-0.067455634 0.032549322 0.051897936
-0.067070857 0.032549322 0.050512187
-0.066323929 0.02972915 0.043437403
-0.064507984 0.032549322 0.043437403
-0.064250678 0.032549322 0.042916909
-0.065775305 0.032549322 0.046257578
-0.066689767 0.032549322 0.049077757
-0.067070857 0.033204868 0.051897936
-0.064250678 0.032935262 0.043437403
-0.062409818 0.035369501 0.043437403
-0.061430499 0.035369501 0.041549567
-0.061430499 0.036586374 0.043437403
-0.064250678 0.034721687 0.046257578
-0.063759208 0.035369501 0.046257578
-0.061467972 0.038189679 0.046257578
-0.061430499 0.038189679 0.046168875
-0.060136326 0.038189679 0.043437403
-0.061430499 0.038237259 0.046257578
-0.05861032 0.040037826 0.043437403
-0.057767183 0.041009858 0.043437403
-0.055790141 0.043109104 0.043437403
-0.059133485 0.041009858 0.046257578
-0.05861032 0.041009858 0.045087285
-0.05861032 0.041619077 0.046257578
-0.056520708 0.043830037 0.046257578
-0.055790141 0.043830037 0.044750419
-0.064776137 0.035369501 0.049077757
-0.064250678 0.035369501 0.047526605
-0.064250678 0.036097512 0.049077757
-0.062600404 0.038189679 0.049077757
-0.065660477 0.035369501 0.051897936
-0.064250678 0.037339896 0.051897936
-0.063607886 0.038189679 0.051897936
-0.061430499 0.039627284 0.049077757
-0.061430499 0.040809169 0.051897936
-0.060272805 0.041009858 0.049077757
-0.05861032 0.042842641 0.049077757
-0.05763251 0.043830037 0.049077757
-0.061255958 0.041009858 0.051897936
-0.05861032 0.043704435 0.051897936
-0.058473956 0.043830037 0.051897936
-0.079360843 0.001527369 0.054718114
-0.079082124 0.0043475479 0.054718114
-0.079774052 0.001527369 0.057538293
-0.079470083 0.0043475479 0.057538293
-0.078726523 0.0071677268 0.054718114
-0.078351565 0.0071677268 0.052788332
-0.078351565 0.0097367093 0.054718114
-0.079194665 0.0071677268 0.057538293
-0.07883855 0.0099879056 0.057538293
-0.078351565 0.0099879056 0.0549279
-0.079814382 0.001527369 0.060358472
-0.07957644 0.0043475479 0.060358472
-0.079704918 0.001527369 0.063178644
-0.079520844 0.0043475479 0.063178644
-0.079393692 0.0071677268 0.060358472
-0.079072736 0.0099879056 0.060358472
-0.079284415 0.0071677268 0.063178644
-0.078908876 0.0099879056 0.063178644
-0.078351565 0.012236543 0.057538293
-0.078439474 0.012808077 0.060358472
-0.078351565 0.012808077 0.058735438
-0.078351565 0.013128206 0.060358472
-0.078351565 0.012617283 0.063178644
-0.078351565 0.012808077 0.062689885
-0.079416759 0.001527369 0.065998822
-0.079268232 0.0043475479 0.065998822
-0.07885313 0.001527369 0.068819001
-0.078783162 0.0043475479 0.068819001
-0.078999214 0.0071677268 0.065998822
-0.078572981 0.0099879056 0.065998822
-0.078598551 0.0071677268 0.068819001
-0.078351565 0.0091801584 0.068819001
-0.078351565 0.0099879056 0.067804106
-0.078351565 -0.00070940703 0.07163918
-0.078351565 0.001527369 0.071195379
-0.078351565 0.0043475479 0.070926331
-0.078351565 0.0071677268 0.070219547
-0.078351565 0.011154108 0.065998822
-0.0783066 0.0099879056 0.054718114
-0.077618331 0.012808077 0.054718114
-0.076750219 0.015628256 0.054718114
-0.078196771 0.012808077 0.057538293
-0.077358425 0.015628256 0.057538293
-0.075867794 0.018448435 0.054718114
-0.075531386 0.018448435 0.053593405
-0.075531386 0.019441478 0.054718114
-0.074811049 0.021268614 0.054718114
-0.076486491 0.018448435 0.057538293
-0.075531386 0.021205507 0.057538293
-0.075507492 0.021268614 0.057538293
-0.077600226 0.015628256 0.060358472
-0.078303799 0.012808077 0.063178644
-0.077522025 0.015628256 0.063178644
-0.076635703 0.018448435 0.060358472
-0.075644307 0.021268614 0.060358472
-0.075531386 0.021268614 0.057720609
-0.076563209 0.018448435 0.063178644
-0.075531386 0.021251097 0.063178644
-0.075531386 0.021268614 0.063016728
-0.075525075 0.021268614 0.063178644
-0.078225404 0.0099879056 0.068819001
-0.078265913 0.001527369 0.07163918
-0.078196406 0.0043475479 0.07163918
-0.078049399 0.0071677268 0.07163918
-0.077758491 0.0099879056 0.07163918
-0.077987179 0.012808077 0.065998822
-0.077266291 0.015628256 0.065998822
-0.077650294 0.012808077 0.068819001
-0.076937228 0.015628256 0.068819001
-0.076416485 0.018448435 0.065998822
-0.075531386 0.020899899 0.065998822
-0.07538645 0.021268614 0.065998822
-0.076126069 0.018448435 0.068819001
-0.075531386 0.02014824 0.068819001
-0.075064242 0.021268614 0.068819001
-0.077220231 0.012808077 0.07163918
-0.076491438 0.015628256 0.07163918
-0.075674482 0.018448435 0.07163918
-0.075531386 0.018882394 0.07163918
-0.074549034 0.021268614 0.07163918
-0.075531386 0.018448435 0.072378308
-0.073364802 0.024088793 0.054718114
-0.072711207 0.024088793 0.052753076
-0.072711207 0.025262937 0.054718114
-0.074166879 0.024088793 0.057538293
-0.072711207 0.026595272 0.057538293
-0.071742535 0.026908971 0.054718114
-0.072525471 0.026908971 0.057538293
-0.070026904 0.02972915 0.054718114
-0.069891036 0.02972915 0.054267824
-0.069891036 0.02996365 0.054718114
-0.068286397 0.032549322 0.054718114
-0.070759572 0.02972915 0.057538293
-0.069891036 0.031123683 0.057538293
-0.068949297 0.032549322 0.057538293
-0.075531386 0.021588288 0.060358472
-0.074471973 0.024088793 0.060358472
-0.072949119 0.026908971 0.060358472
-0.072711207 0.026908971 0.058502413
-0.074385725 0.024088793 0.063178644
-0.073026165 0.026908971 0.063178644
-0.072711207 0.027326234 0.060358472
-0.072711207 0.027521007 0.063178644
-0.071218126 0.02972915 0.060358472
-0.069891036 0.031730108 0.060358472
-0.069325358 0.032549322 0.060358472
-0.071389116 0.02972915 0.063178644
-0.069891036 0.03188362 0.063178644
-0.069406383 0.032549322 0.063178644
-0.067070857 0.034439072 0.054718114
-0.067070857 0.035241202 0.057538293
-0.067262828 0.035369501 0.060358472
-0.067070857 0.035369501 0.058242403
-0.067070857 0.035645545 0.060358472
-0.067267269 0.035369501 0.063178644
-0.067070857 0.035637826 0.063178644
-0.066454858 0.035369501 0.054718114
-0.064451993 0.038189679 0.054718114
-0.064250678 0.038189679 0.053991497
-0.066984877 0.035369501 0.057538293
-0.065028906 0.038189679 0.057538293
-0.064250678 0.038462803 0.054718114
-0.062047519 0.041009858 0.054718114
-0.061430499 0.041009858 0.052450866
-0.061430499 0.041644022 0.054718114
-0.064250678 0.039216429 0.057538293
-0.062594771 0.041009858 0.057538293
-0.061430499 0.042137563 0.057538293
-0.059118446 0.043830037 0.054718114
-0.05861032 0.043830037 0.052425779
-0.059619904 0.043830037 0.057538293
-0.065242 0.038189679 0.060358472
-0.065120697 0.038189679 0.063178644
-0.064250678 0.039476916 0.060358472
-0.062877342 0.041009858 0.060358472
-0.061430499 0.042472914 0.060358472
-0.064250678 0.039303705 0.063178644
-0.062807493 0.041009858 0.063178644
-0.061430499 0.042489856 0.063178644
-0.060003694 0.043830037 0.060358472
-0.060068462 0.043830037 0.063178644
-0.074117668 0.024088793 0.065998822
-0.072757095 0.026908971 0.065998822
-0.07366275 0.024088793 0.068819001
-0.072711207 0.026044391 0.068819001
-0.072711207 0.026908971 0.066288672
-0.07228031 0.026908971 0.068819001
-0.072711207 0.027003251 0.065998822
-0.071120083 0.02972915 0.065998822
-0.069891036 0.031512767 0.065998822
-0.069132552 0.032549322 0.065998822
-0.070570439 0.02972915 0.068819001
-0.069891036 0.030757643 0.068819001
-0.068637848 0.032549322 0.068819001
-0.073188499 0.024088793 0.07163918
-0.072711207 0.02516672 0.07163918
-0.071875721 0.026908971 0.07163918
-0.070155069 0.02972915 0.07163918
-0.069891036 0.030121401 0.07163918
-0.068123549 0.032549322 0.07163918
-0.069891036 0.02972915 0.073447809
-0.067070857 0.035274714 0.065998822
-0.067070857 0.035369501 0.065407239
-0.067070857 0.03474234 0.068819001
-0.067070857 0.033991963 0.07163918
-0.067000926 0.035369501 0.065998822
-0.064833708 0.038189679 0.065998822
-0.066642255 0.035369501 0.068819001
-0.064598322 0.038189679 0.068819001
-0.064250678 0.038938001 0.065998822
-0.062497992 0.041009858 0.065998822
-0.061430499 0.04215382 0.065998822
-0.064250678 0.038631618 0.068819001
-0.062064625 0.041009858 0.068819001
-0.061430499 0.041634411 0.068819001
-0.059785444 0.043830037 0.065998822
-0.059293501 0.043830037 0.068819001
-0.066136137 0.035369501 0.07163918
-0.064250678 0.037946716 0.07163918
-0.064250678 0.038189679 0.070947856
-0.064049929 0.038189679 0.07163918
-0.061430499 0.040902436 0.07163918
-0.061430499 0.041009858 0.071284413
-0.061319526 0.041009858 0.07163918
-0.058690432 0.043830037 0.07163918
-0.05861032 0.043830037 0.071996644
-0.055389691 0.035369501 0.032156691
-0.052979253 0.038189679 0.032156691
-0.052969962 0.038189679 0.032145437
-0.055195957 0.038189679 0.03497687
-0.052969962 0.038199931 0.032156691
-0.050149783 0.040981784 0.032156691
-0.052969962 0.04056336 0.03497687
-0.052516777 0.041009858 0.03497687
-0.050149783 0.041009858 0.032191556
-0.050149783 0.043149233 0.03497687
-0.050117791 0.041009858 0.032156691
-0.047329608 0.043323264 0.032156691
-0.046673954 0.043830037 0.032156691
-0.044509429 0.043830037 0.029879194
-0.049304448 0.043830037 0.03497687
-0.047329608 0.043830037 0.032848988
-0.054552127 0.041009858 0.037797045
-0.052969962 0.041009858 0.035567757
-0.052969962 0.042580336 0.037797045
-0.05161557 0.043830037 0.037797045
-0.050149783 0.043830037 0.035943739
-0.053416599 0.043830037 0.040617224
-0.052969962 0.043830037 0.039848261
-0.055068433 0.043830037 0.043437403
-0.055790141 0.044542462 0.046257578
-0.055790141 0.045565218 0.049077757
-0.055790141 0.046224222 0.051897936
-0.05861032 0.04428412 0.054718114
-0.055881977 0.046650216 0.054718114
-0.055790141 0.046650216 0.054273233
-0.055790141 0.046726033 0.054718114
-0.05861032 0.044752121 0.057538293
-0.056425944 0.046650216 0.057538293
-0.055790141 0.047173098 0.057538293
-0.05861032 0.045094043 0.060358472
-0.056805298 0.046650216 0.060358472
-0.055790141 0.047496796 0.060358472
-0.05861032 0.045196682 0.063178644
-0.057005178 0.046650216 0.063178644
-0.055790141 0.047713518 0.063178644
-0.05861032 0.045039117 0.065998822
-0.057009965 0.046650216 0.065998822
-0.055790141 0.047784522 0.065998822
-0.05861032 0.044594169 0.068819001
-0.056679923 0.046650216 0.068819001
-0.055790141 0.047479451 0.068819001
-0.05861032 0.043924123 0.07163918
-0.055990644 0.046650216 0.07163918
-0.055790141 0.046827063 0.07163918
-0.055790141 0.046650216 0.072314084
-0.044509429 0.045478821 0.032156691
-0.047329608 0.045345619 0.03497687
-0.045537993 0.046650216 0.03497687
-0.044509429 0.046650216 0.033883478
-0.044509429 0.047382131 0.03497687
-0.050149783 0.045092583 0.037797045
-0.052969962 0.044261053 0.040617224
-0.050362591 0.046650216 0.040617224
-0.050149783 0.046650216 0.040294487
-0.050149783 0.046827823 0.040617224
-0.048173863 0.046650216 0.037797045
-0.047329608 0.046650216 0.036879625
-0.047329608 0.047270954 0.037797045
-0.044509429 0.049239367 0.037797045
-0.047329608 0.048986509 0.040617224
-0.046589963 0.049470395 0.040617224
-0.044509429 0.049470395 0.038193516
-0.044509429 0.050717771 0.040617224
-0.042875152 0.046650216 0.032156691
-0.041689251 0.046650216 0.03094637
-0.041689251 0.047469109 0.032156691
-0.038869075 0.04932414 0.032156691
-0.041689251 0.049322188 0.03497687
-0.041452821 0.049470395 0.03497687
-0.038869075 0.049470395 0.032387752
-0.038626648 0.049470395 0.032156691
-0.036048897 0.049470395 0.02986883
-0.038869075 0.051024958 0.03497687
-0.036048897 0.050948814 0.032156691
-0.033228718 0.05227536 0.032156691
-0.036440134 0.052290574 0.03497687
-0.036048897 0.052290574 0.03459809
-0.033228718 0.052290574 0.032183722
-0.036048897 0.052478254 0.03497687
-0.033228718 0.053832427 0.03497687
-0.044139784 0.049470395 0.037797045
-0.041689251 0.049470395 0.035219584
-0.041689251 0.050928995 0.037797045
-0.039167698 0.052290574 0.037797045
-0.038869075 0.052290574 0.037468277
-0.038869075 0.052443445 0.037797045
-0.041689251 0.052200064 0.040617224
-0.041507814 0.052290574 0.040617224
-0.038869075 0.053748593 0.040617224
-0.036048897 0.053927541 0.037797045
-0.033651166 0.055110753 0.037797045
-0.033228718 0.055110753 0.037410825
-0.036413297 0.055110753 0.040617224
-0.036048897 0.055110753 0.040201835
-0.033228718 0.055308372 0.037797045
-0.036048897 0.055292353 0.040617224
-0.033228718 0.056675345 0.040617224
-0.052969962 0.045835316 0.043437403
-0.052051309 0.046650216 0.043437403
-0.050149783 0.048211664 0.043437403
-0.053463023 0.046650216 0.046257578
-0.052969962 0.046650216 0.045198828
-0.052969962 0.047059566 0.046257578
-0.050149783 0.049243808 0.046257578
-0.048406713 0.049470395 0.043437403
-0.047329608 0.049470395 0.041655898
-0.049817901 0.049470395 0.046257578
-0.047329608 0.05017519 0.043437403
-0.044509429 0.051864296 0.043437403
-0.047329608 0.051138267 0.046257578
-0.04543408 0.052290574 0.046257578
-0.044509429 0.052290574 0.044691782
-0.044509429 0.052812293 0.046257578
-0.054543402 0.046650216 0.049077757
-0.052969962 0.047927037 0.049077757
-0.050904576 0.049470395 0.049077757
-0.050149783 0.049470395 0.047036685
-0.055283841 0.046650216 0.051897936
-0.052969962 0.048535958 0.051897936
-0.051719084 0.049470395 0.051897936
-0.050149783 0.049992606 0.049077757
-0.050149783 0.050594762 0.051897936
-0.047329608 0.051973611 0.049077757
-0.046844874 0.052290574 0.049077757
-0.044509429 0.053751707 0.049077757
-0.047755726 0.052290574 0.051897936
-0.047329608 0.052290574 0.050362892
-0.047329608 0.052580386 0.051897936
-0.044509429 0.054497376 0.051897936
-0.043671519 0.052290574 0.043437403
-0.041689251 0.052290574 0.040850144
-0.041689251 0.053309888 0.043437403
-0.038869075 0.054903761 0.043437403
-0.041689251 0.05441308 0.046257578
-0.040386878 0.055110753 0.046257578
-0.038869075 0.055110753 0.044006556
-0.038492873 0.055110753 0.043437403
-0.042110868 0.055110753 0.049077757
-0.041689251 0.055110753 0.048336409
-0.043519348 0.055110753 0.051897936
-0.038869075 0.055924326 0.046257578
-0.036048897 0.056411833 0.043437403
-0.033228718 0.057755619 0.043437403
-0.036048897 0.057416394 0.046257578
-0.034958735 0.057930931 0.046257578
-0.033228718 0.057930931 0.043952327
-0.033228718 0.058733404 0.046257578
-0.041689251 0.055335715 0.049077757
-0.038869075 0.056916684 0.049077757
-0.041689251 0.056214243 0.051897936
-0.038869075 0.05788438 0.051897936
-0.036931254 0.057930931 0.049077757
-0.036048897 0.057930931 0.047789343
-0.036048897 0.058366686 0.049077757
-0.033228718 0.059789255 0.049077757
-0.038785763 0.057930931 0.051897936
-0.036048897 0.059467867 0.051897936
-0.033474997 0.06075111 0.051897936
-0.033228718 0.06075111 0.051612914
-0.033228718 0.060856476 0.051897936
-0.033191651 0.052290574 0.032156691
-0.030408539 0.052290574 0.030351583
-0.030408539 0.05338788 0.032156691
-0.02758836 0.054418415 0.032156691
-0.030408539 0.055054009 0.03497687
-0.030265093 0.055110753 0.03497687
-0.02758836 0.055110753 0.033278961
-0.025554143 0.055110753 0.032156691
-0.024768181 0.055110753 0.031755272
-0.02194801 0.055110753 0.030493263
-0.030408539 0.055110753 0.035078205
-0.019127831 0.055110753 0.029614095
-0.02758836 0.056127504 0.03497687
-0.024768181 0.055367813 0.032156691
-0.02194801 0.056182161 0.032156691
-0.024768181 0.057049721 0.03497687
-0.02194801 0.057729349 0.03497687
-0.030408539 0.056627318 0.037797045
-0.02758836 0.057682827 0.037797045
-0.030414201 0.057930931 0.040617224
-0.030408539 0.057930931 0.040611167
-0.02758836 0.057930931 0.038301963
-0.030408539 0.057933256 0.040617224
-0.02758836 0.058987722 0.040617224
-0.026749447 0.057930931 0.037797045
-0.024768181 0.057930931 0.036699746
-0.02194801 0.057930931 0.03538695
-0.024768181 0.058479115 0.037797045
-0.02194801 0.059163943 0.037797045
-0.024768181 0.059884652 0.040617224
-0.02194801 0.060572609 0.040617224
-0.019127831 0.056732133 0.032156691
-0.016307652 0.057056472 0.032156691
-0.020826608 0.057930931 0.03497687
-0.019127831 0.057930931 0.034447297
-0.016307652 0.057930931 0.033781677
-0.019127831 0.058191642 0.03497687
-0.016307652 0.058559343 0.03497687
-0.013487473 0.055299759 0.029336512
-0.013487473 0.057226166 0.032156691
-0.013487473 0.057930931 0.033386461
-0.013487473 0.058832705 0.03497687
-0.019127831 0.059679836 0.037797045
-0.016307652 0.060104072 0.037797045
-0.0209364 0.06075111 0.040617224
-0.019127831 0.06075111 0.040009975
-0.016307652 0.06075111 0.03912681
-0.013487473 0.060404271 0.037797045
-0.013487473 0.06075111 0.038498286
-0.019127831 0.06100823 0.040617224
-0.016307652 0.061369359 0.040617224
-0.013487473 0.061655611 0.040617224
-0.032824889 0.057930931 0.043437403
-0.030408539 0.058994219 0.043437403
-0.02758836 0.060132012 0.043437403
-0.030408539 0.060041159 0.046257578
-0.028605059 0.06075111 0.046257578
-0.02758836 0.06075111 0.045200337
-0.025666647 0.06075111 0.043437403
-0.024768181 0.06075111 0.04272062
-0.02194801 0.06075111 0.041028481
-0.02758836 0.061103955 0.046257578
-0.024768181 0.061009586 0.043437403
-0.02194801 0.061678216 0.043437403
-0.024768181 0.06194897 0.046257578
-0.02194801 0.062569559 0.046257578
-0.031040281 0.06075111 0.049077757
-0.030408539 0.06075111 0.048324384
-0.030408539 0.060996622 0.049077757
-0.02758836 0.061969057 0.049077757
-0.030408539 0.061896682 0.051897936
-0.02758836 0.062671423 0.051897936
-0.024768181 0.062726051 0.049077757
-0.02194801 0.063374251 0.049077757
-0.024768181 0.063375622 0.051897936
-0.024028756 0.063571289 0.051897936
-0.02194801 0.063571289 0.049774177
-0.02194801 0.064166263 0.051897936
-0.019127831 0.062087238 0.043437403
-0.016307652 0.0624028 0.043437403
-0.019127831 0.063028648 0.046257578
-0.016307652 0.063388035 0.046257578
-0.013487473 0.062684879 0.043437403
-0.014445275 0.063571289 0.046257578
-0.013487473 0.063571289 0.046044361
-0.013487473 0.063644022 0.046257578
-0.021035396 0.063571289 0.049077757
-0.019127831 0.063571289 0.047945425
-0.016307652 0.063571289 0.046781719
-0.019127831 0.063956887 0.049077757
-0.016307652 0.064406365 0.049077757
-0.019127831 0.064927846 0.051897936
-0.016307652 0.065371156 0.051897936
-0.013487473 0.064640611 0.049077757
-0.013487473 0.065549672 0.051897936
-0.052969962 0.04901281 0.054718114
-0.052353505 0.049470395 0.054718114
-0.052969962 0.04943423 0.057538293
-0.052921321 0.049470395 0.057538293
-0.050149783 0.051066279 0.054718114
-0.050149783 0.051515818 0.057538293
-0.048378047 0.052290574 0.054718114
-0.047329608 0.053006724 0.054718114
-0.044509429 0.05504477 0.054718114
-0.04903258 0.052290574 0.057538293
-0.047329608 0.05348447 0.057538293
-0.045053598 0.055110753 0.057538293
-0.044509429 0.055110753 0.05510246
-0.053398825 0.049470395 0.060358472
-0.052969962 0.049470395 0.057783395
-0.053720176 0.049470395 0.063178644
-0.052969962 0.049808353 0.060358472
-0.050149783 0.051957369 0.060358472
-0.052969962 0.050077617 0.063178644
-0.050149783 0.052205533 0.063178644
-0.049671758 0.052290574 0.060358472
-0.047329608 0.053936601 0.060358472
-0.045605887 0.055110753 0.060358472
-0.050023295 0.052290574 0.063178644
-0.047329608 0.054135993 0.063178644
-0.045875061 0.055110753 0.063178644
-0.044415683 0.055110753 0.054718114
-0.044509429 0.055485621 0.057538293
-0.044509429 0.055811614 0.060358472
-0.044509429 0.055972964 0.063178644
-0.041689251 0.056977823 0.054718114
-0.040136266 0.057930931 0.054718114
-0.038869075 0.057930931 0.052033864
-0.038869075 0.058690757 0.054718114
-0.041689251 0.057340696 0.057538293
-0.040670034 0.057930931 0.057538293
-0.038869075 0.058993995 0.057538293
-0.036048897 0.060393691 0.054718114
-0.035371386 0.06075111 0.054718114
-0.036051862 0.06075111 0.057538293
-0.036048897 0.06075111 0.057487495
-0.033228718 0.061700881 0.054718114
-0.036048897 0.060752839 0.057538293
-0.033228718 0.062085763 0.057538293
-0.041689251 0.057469636 0.060358472
-0.040796474 0.057930931 0.060358472
-0.038869075 0.059015974 0.060358472
-0.041689251 0.057593644 0.063178644
-0.04103554 0.057930931 0.063178644
-0.038869075 0.059164912 0.063178644
-0.036194578 0.06075111 0.060358472
-0.036300622 0.06075111 0.063178644
-0.036048897 0.060841799 0.060358472
-0.033228718 0.062244684 0.060358472
-0.036048897 0.060895815 0.063178644
-0.033228718 0.062266588 0.063178644
-0.053785514 0.049470395 0.065998822
-0.053327214 0.049470395 0.068819001
-0.052969962 0.050092041 0.065998822
-0.050149783 0.052112937 0.065998822
-0.052969962 0.049727216 0.068819001
-0.050149783 0.051758081 0.068819001
-0.049883034 0.052290574 0.065998822
-0.047329608 0.05409795 0.065998822
-0.04587223 0.055110753 0.065998822
-0.049406383 0.052290574 0.068819001
-0.047329608 0.053852931 0.068819001
-0.04554002 0.055110753 0.068819001
-0.052969962 0.04911463 0.07163918
-0.052969962 0.049470395 0.070082009
-0.052490775 0.049470395 0.07163918
-0.050149783 0.051217884 0.07163918
-0.048709679 0.052290574 0.07163918
-0.047329608 0.053326026 0.07163918
-0.044726938 0.055110753 0.07163918
-0.044509429 0.055110753 0.072267301
-0.044509429 0.055963889 0.065998822
-0.044509429 0.055728748 0.068819001
-0.044509429 0.055238262 0.07163918
-0.041689251 0.057603374 0.065998822
-0.041092306 0.057930931 0.065998822
-0.038869075 0.059213281 0.065998822
-0.041689251 0.057329714 0.068819001
-0.040587135 0.057930931 0.068819001
-0.038869075 0.058875084 0.068819001
-0.036048897 0.060722396 0.065998822
-0.036048897 0.06075111 0.06574931
-0.035987131 0.06075111 0.065998822
-0.036048897 0.060323685 0.068819001
-0.035078712 0.06075111 0.068819001
-0.033228718 0.061971009 0.065998822
-0.033228718 0.061544269 0.068819001
-0.041689251 0.056874305 0.07163918
-0.039746016 0.057930931 0.07163918
-0.038869075 0.058375612 0.07163918
-0.036048897 0.059817716 0.07163918
-0.03407041 0.06075111 0.07163918
-0.033228718 0.06075111 0.074276827
-0.033228718 0.061119631 0.07163918
-0.030408539 0.062576905 0.054718114
-0.02758836 0.063245609 0.054718114
-0.030408539 0.062947705 0.057538293
-0.028052241 0.063571289 0.057538293
-0.02758836 0.063571289 0.056660533
-0.02758836 0.063699752 0.057538293
-0.026276618 0.063571289 0.054718114
-0.024768181 0.063571289 0.052804135
-0.024768181 0.063997492 0.054718114
-0.02194801 0.064917475 0.054718114
-0.024768181 0.064550966 0.057538293
-0.02194801 0.065435678 0.057538293
-0.030408539 0.063172996 0.060358472
-0.029064454 0.063571289 0.060358472
-0.02758836 0.064026609 0.060358472
-0.030408539 0.06322746 0.063178644
-0.029279426 0.063571289 0.063178644
-0.02758836 0.064123228 0.063178644
-0.024768181 0.064885035 0.060358472
-0.02194801 0.065649629 0.060358472
-0.024768181 0.064997315 0.063178644
-0.02194801 0.065673232 0.063178644
-0.019127831 0.065667838 0.054718114
-0.016307652 0.066061169 0.054718114
-0.019127831 0.06608744 0.057538293
-0.016974226 0.066391453 0.057538293
-0.016307652 0.066391453 0.056828506
-0.013487473 0.066247642 0.054718114
-0.013487473 0.066391453 0.055434316
-0.019127831 0.066210687 0.060358472
-0.01781328 0.066391453 0.060358472
-0.019127831 0.066198617 0.063178644
-0.017800927 0.066391453 0.063178644
-0.030408539 0.063031718 0.065998822
-0.028784677 0.063571289 0.065998822
-0.02758836 0.063983887 0.065998822
-0.030408539 0.06273967 0.068819001
-0.028156549 0.063571289 0.068819001
-0.02758836 0.063768655 0.068819001
-0.024768181 0.064885825 0.065998822
-0.02194801 0.065524846 0.065998822
-0.024768181 0.064620659 0.068819001
-0.02194801 0.065197647 0.068819001
-0.030408539 0.0623606 0.07163918
-0.02758836 0.063470498 0.07163918
-0.02758836 0.063571289 0.070844039
-0.027288288 0.063571289 0.07163918
-0.024768181 0.064269081 0.07163918
-0.02194801 0.064794213 0.07163918
-0.019127831 0.06608443 0.065998822
-0.017368823 0.066391453 0.065998822
-0.019127831 0.065728992 0.068819001
-0.016307652 0.066209868 0.068819001
-0.016307652 0.066391453 0.067635767
-0.014327414 0.066391453 0.068819001
-0.019127831 0.065236643 0.07163918
-0.016307652 0.06565322 0.07163918
-0.013487473 0.06590569 0.07163918
-0.013487473 0.066391453 0.069036819
-0.016307652 0.066465199 0.057538293
-0.013487473 0.066713095 0.057538293
-0.016307652 0.066561162 0.060358472
-0.016307652 0.066556215 0.063178644
-0.013487473 0.066842377 0.060358472
-0.013487473 0.066781163 0.063178644
-0.016307652 0.066526324 0.065998822
-0.013487473 0.066707864 0.065998822
-0.013487473 0.066426903 0.068819001
-0.076944038 0.001527369 0.077279538
-0.076763108 0.0043475479 0.077279538
-0.076040916 0.001527369 0.080099717
-0.075932637 0.0043475479 0.080099717
-0.076499276 0.0071677268 0.077279538
-0.076209694 0.0099879056 0.077279538
-0.075693831 0.0071677268 0.080099717
-0.075531386 0.0087491497 0.080099717
-0.075531386 0.0099879056 0.079630092
-0.07538709 0.0099879056 0.080099717
-0.075531386 0.001527369 0.081764169
-0.075173639 0.001527369 0.082919896
-0.075531386 0.0043475479 0.081427947
-0.075071126 0.0043475479 0.082919896
-0.074141078 0.001527369 0.085740075
-0.074032068 0.0043475479 0.085740075
-0.075531386 0.0071677268 0.080629833
-0.074759312 0.0071677268 0.082919896
-0.074345186 0.0099879056 0.082919896
-0.073659755 0.0071677268 0.085740075
-0.073181883 0.0099879056 0.085740075
-0.075813249 0.012808077 0.077279538
-0.075531386 0.014352687 0.077279538
-0.075531386 0.015628256 0.076100998
-0.075254016 0.015628256 0.077279538
-0.075531386 0.012808077 0.078311153
-0.074981406 0.012808077 0.080099717
-0.074423701 0.015628256 0.080099717
-0.074433111 0.018448435 0.077279538
-0.073362552 0.021268614 0.077279538
-0.07360673 0.018448435 0.080099717
-0.072711207 0.020701721 0.080099717
-0.072711207 0.021268614 0.079376884
-0.072444625 0.021268614 0.080099717
-0.073914662 0.012808077 0.082919896
-0.073405594 0.015628256 0.082919896
-0.072714493 0.012808077 0.085740075
-0.072711207 0.012828358 0.085740075
-0.072711207 0.015628256 0.084603034
-0.072140992 0.015628256 0.085740075
-0.072711207 0.018148862 0.082919896
-0.072711207 0.018448435 0.082647361
-0.072603233 0.018448435 0.082919896
-0.071200818 0.021268614 0.082919896
-0.07116659 0.018448435 0.085740075
-0.069891036 0.021164216 0.085740075
-0.069891036 0.021268614 0.085632995
-0.069840088 0.021268614 0.085740075
-0.072884217 0.001527369 0.088560246
-0.072752319 0.0043475479 0.088560246
-0.072711207 0.001527369 0.088936195
-0.072711207 0.0043475479 0.088645667
-0.071547888 0.001527369 0.091380425
-0.071323209 0.0043475479 0.091380425
-0.072711207 0.0049606711 0.088560246
-0.072711207 0.0071677268 0.088057965
-0.072711207 0.0099879056 0.086910494
-0.072497383 0.0071677268 0.088560246
-0.071995124 0.0099879056 0.088560246
-0.071094811 0.0071677268 0.091380425
-0.070459887 0.0099879056 0.091380425
-0.070091344 0.001527369 0.094200604
-0.069891036 0.0027875975 0.094200604
-0.069891036 0.0043475479 0.093842179
-0.06966351 0.0043475479 0.094200604
-0.069891036 0.001527369 0.094581187
-0.068501875 0.001527369 0.097020783
-0.067752287 0.0043475479 0.097020783
-0.069891036 0.0071677268 0.093307272
-0.069234639 0.0071677268 0.094200604
-0.069891036 0.0099879056 0.092285015
-0.068501681 0.0099879056 0.094200604
-0.067070857 0.0069653019 0.097020783
-0.067070857 0.0071677268 0.096956387
-0.067070857 0.0099879056 0.096013501
-0.067022949 0.0071677268 0.097020783
-0.066289738 0.0099879056 0.097020783
-0.072711207 0.012808077 0.085747309
-0.071222931 0.012808077 0.088560246
-0.070388466 0.015628256 0.088560246
-0.069891036 0.011685148 0.091380425
-0.069891036 0.012808077 0.090779372
-0.069527507 0.012808077 0.091380425
-0.069891036 0.015628256 0.089359783
-0.068703599 0.015628256 0.091380425
-0.069891036 0.017265067 0.088560246
-0.069891036 0.018448435 0.087889329
-0.069500953 0.018448435 0.088560246
-0.068436459 0.021268614 0.088560246
-0.067914195 0.018448435 0.091380425
-0.067070857 0.021092124 0.091380425
-0.067070857 0.021268614 0.091258936
-0.067699447 0.012808077 0.094200604
-0.067122094 0.015628256 0.094200604
-0.067070857 0.012808077 0.095128365
-0.067070857 0.015628256 0.094290897
-0.067070857 0.015884019 0.094200604
-0.067070857 0.018448435 0.092996418
-0.067008376 0.021268614 0.091380425
-0.065697297 0.012808077 0.097020783
-0.065322131 0.015628256 0.097020783
-0.066413291 0.018448435 0.094200604
-0.065364853 0.021268614 0.094200604
-0.064678803 0.018448435 0.097020783
-0.064250678 0.019652106 0.097020783
-0.064250678 0.021268614 0.095942557
-0.063539714 0.021268614 0.097020783
-0.072711207 0.022827618 0.077279538
-0.072711207 0.024088793 0.074978791
-0.072138004 0.024088793 0.077279538
-0.070593946 0.026908971 0.077279538
-0.070920959 0.024088793 0.080099717
-0.069891036 0.025912233 0.080099717
-0.069891036 0.026908971 0.078855917
-0.069290161 0.026908971 0.080099717
-0.069891036 0.028023519 0.077279538
-0.068704918 0.02972915 0.077279538
-0.067070857 0.032013617 0.077279538
-0.067070857 0.032549322 0.076241001
-0.067424893 0.02972915 0.080099717
-0.067070857 0.030266993 0.080099717
-0.069891036 0.023545854 0.082919896
-0.069891036 0.024088793 0.082248315
-0.069588825 0.024088793 0.082919896
-0.067938566 0.026908971 0.082919896
-0.068330005 0.024088793 0.085740075
-0.067070857 0.026260696 0.085740075
-0.067070857 0.026908971 0.084866725
-0.067070857 0.028387703 0.082919896
-0.067070857 0.02972915 0.080959357
-0.066690944 0.032549322 0.077279538
-0.065501854 0.032549322 0.080099717
-0.066693217 0.026908971 0.085740075
-0.066279508 0.02972915 0.082919896
-0.064456314 0.032549322 0.082919896
-0.065067872 0.02972915 0.085740075
-0.064250678 0.031155758 0.085740075
-0.064250678 0.032549322 0.083512902
-0.063340351 0.032549322 0.085740075
-0.064458124 0.035369501 0.077279538
-0.064250678 0.035613999 0.077279538
-0.062062111 0.038189679 0.077279538
-0.064250678 0.034248933 0.080099717
-0.064250678 0.035369501 0.077838823
-0.063378908 0.035369501 0.080099717
-0.061430499 0.037812173 0.080099717
-0.061430499 0.038189679 0.079254083
-0.061136894 0.038189679 0.080099717
-0.061430499 0.038958177 0.077279538
-0.059732541 0.041009858 0.077279538
-0.05861032 0.042366892 0.077279538
-0.057314169 0.043830037 0.077279538
-0.058891758 0.041009858 0.080099717
-0.05861032 0.041348949 0.080099717
-0.056331839 0.043830037 0.080099717
-0.064250678 0.032843024 0.082919896
-0.0622757 0.035369501 0.082919896
-0.061430499 0.036387265 0.082919896
-0.061430499 0.034944937 0.085740075
-0.061430499 0.035369501 0.084937975
-0.059976 0.038189679 0.082919896
-0.061055955 0.035369501 0.085740075
-0.05861032 0.038153604 0.085740075
-0.05861032 0.038189679 0.085683502
-0.058580257 0.038189679 0.085740075
-0.05861032 0.039934918 0.082919896
-0.05861032 0.041009858 0.080868267
-0.057737768 0.041009858 0.082919896
-0.055790141 0.043150052 0.082919896
-0.055790141 0.043830037 0.081408486
-0.056249354 0.041009858 0.085740075
-0.055790141 0.041530177 0.085740075
-0.067105062 0.024088793 0.088560246
-0.067070857 0.024152748 0.088560246
-0.067070857 0.024088793 0.088640191
-0.065466851 0.026908971 0.088560246
-0.065721907 0.024088793 0.091380425
-0.064250678 0.026588269 0.091380425
-0.064250678 0.026908971 0.091031045
-0.064048938 0.026908971 0.091380425
-0.064250678 0.028943554 0.088560246
-0.064250678 0.02972915 0.087563656
-0.063768089 0.02972915 0.088560246
-0.061772916 0.032549322 0.088560246
-0.062071841 0.02972915 0.091380425
-0.061430499 0.030564323 0.091380425
-0.061430499 0.032549322 0.089086503
-0.059854746 0.032549322 0.091380425
-0.064250678 0.023565665 0.094200604
-0.064250678 0.024088793 0.093763612
-0.063957557 0.024088793 0.094200604
-0.0621874 0.026908971 0.094200604
-0.061958011 0.024088793 0.097020783
-0.061430499 0.024956048 0.097020783
-0.061430499 0.026908971 0.095289931
-0.0601785 0.026908971 0.097020783
-0.061430499 0.028035991 0.094200604
-0.061430499 0.02972915 0.092358455
-0.060229532 0.02972915 0.094200604
-0.05861032 0.031828135 0.094200604
-0.05861032 0.032549322 0.093257666
-0.058009613 0.032549322 0.094200604
-0.05861032 0.029303998 0.097020783
-0.05861032 0.02972915 0.096622691
-0.058331572 0.02972915 0.097020783
-0.056153659 0.032549322 0.097020783
-0.061430499 0.032996237 0.088560246
-0.059443627 0.035369501 0.088560246
-0.05861032 0.036303356 0.088560246
-0.056974314 0.038189679 0.088560246
-0.05861032 0.03409344 0.091380425
-0.05861032 0.035369501 0.089828737
-0.057564862 0.035369501 0.091380425
-0.055790141 0.037604555 0.091380425
-0.055790141 0.038189679 0.090603217
-0.055790141 0.039606392 0.088560246
-0.055790141 0.041009858 0.086511038
-0.055790141 0.035154924 0.094200604
-0.055790141 0.035369501 0.093957528
-0.055790141 0.032954015 0.097020783
-0.067070857 0.001527369 0.099238053
-0.067070857 0.0043475479 0.098028161
-0.066648789 0.001527369 0.099840961
-0.06579183 0.0043475479 0.099840961
-0.064533509 0.001527369 0.10266114
-0.064250678 0.0025954247 0.10266114
-0.064250678 0.0043475479 0.10195539
-0.063725941 0.0043475479 0.10266114
-0.064967096 0.0071677268 0.099840961
-0.064252771 0.0099879056 0.099840961
-0.064250678 0.0071677268 0.10085697
-0.062936679 0.0071677268 0.10266114
-0.064250678 0.0099879056 0.099844106
-0.062264923 0.0099879056 0.10266114
-0.064250678 0.001527369 0.1030312
-0.06239171 0.001527369 0.10548132
-0.061583661 0.0043475479 0.10548132
-0.061430499 0.001527369 0.10666046
-0.061430499 0.0043475479 0.1056736
-0.059982616 0.001527369 0.10830149
-0.059038542 0.0043475479 0.10830149
-0.061430499 0.004833214 0.10548132
-0.061430499 0.0071677268 0.1046496
-0.061430499 0.0099879056 0.10376882
-0.060768411 0.0071677268 0.10548132
-0.06005802 0.0099879056 0.10548132
-0.05861032 0.0055205151 0.10830149
-0.05861032 0.0071677268 0.10781229
-0.058091916 0.0071677268 0.10830149
-0.05861032 0.0099879056 0.1070683
-0.057361536 0.0099879056 0.10830149
-0.064250678 0.0099963173 0.099840961
-0.064250678 0.012808077 0.099055253
-0.063724004 0.012808077 0.099840961
-0.064250678 0.015628256 0.09860754
-0.063406408 0.015628256 0.099840961
-0.061685324 0.012808077 0.10266114
-0.061430499 0.014182299 0.10266114
-0.061430499 0.015628256 0.10232195
-0.061117083 0.015628256 0.10266114
-0.064250678 0.018448435 0.097694866
-0.062733203 0.018448435 0.099840961
-0.061430499 0.021167226 0.099840961
-0.061430499 0.021268614 0.099774376
-0.061430499 0.018448435 0.10135497
-0.061373327 0.021268614 0.099840961
-0.060126171 0.018448435 0.10266114
-0.058806073 0.021268614 0.10266114
-0.061430499 0.012808077 0.10298558
-0.059325464 0.012808077 0.10548132
-0.05861032 0.015014648 0.10548132
-0.05861032 0.015628256 0.1052447
-0.05837819 0.015628256 0.10548132
-0.05861032 0.012808077 0.10626396
-0.056576118 0.012808077 0.10830149
-0.055790141 0.014983192 0.10830149
-0.055790141 0.015628256 0.10806326
-0.05861032 0.018448435 0.10414137
-0.057303462 0.018448435 0.10548132
-0.05861032 0.021268614 0.10287782
-0.056255944 0.021268614 0.10548132
-0.055790141 0.018448435 0.1070289
-0.055790141 0.021268614 0.10595468
-0.05861032 0.001527369 0.10962494
-0.056869827 0.001527369 0.11112167
-0.05861032 0.0043475479 0.1087037
-0.056034617 0.0043475479 0.11112167
-0.055790141 0.001527369 0.11203788
-0.055790141 0.0043475479 0.11136608
-0.055790141 0.0051857904 0.11112167
-0.055790141 0.0071677268 0.11051616
-0.055790141 0.0099879056 0.10975404
-0.055790141 0.012808077 0.10900798
-0.061430499 0.024088793 0.097728305
-0.059731349 0.024088793 0.099840961
-0.05861032 0.025947161 0.099840961
-0.05861032 0.026908971 0.099075012
-0.058013786 0.026908971 0.099840961
-0.05861032 0.021686144 0.10266114
-0.05861032 0.024088793 0.1011911
-0.057429116 0.024088793 0.10266114
-0.055799115 0.026908971 0.10266114
-0.056209922 0.02972915 0.099840961
-0.055790141 0.030368522 0.099840961
-0.055790141 0.032549322 0.097561292
-0.055790141 0.026923448 0.10266114
-0.055790141 0.02972915 0.10038247
-0.055790141 0.022333302 0.10548132
-0.055790141 0.024088793 0.10455538
-0.055790141 0.026908971 0.10267214
-0.055087492 0.043830037 0.082919896
-0.053453024 0.043830037 0.085740075
-0.055338051 0.038189679 0.091380425
-0.054517757 0.041009858 0.088560246
-0.052969962 0.042548522 0.088560246
-0.052969962 0.043830037 0.086495951
-0.051589508 0.043830037 0.088560246
-0.052969962 0.040857628 0.091380425
-0.052969962 0.041009858 0.091121092
-0.05281518 0.041009858 0.091380425
-0.050149783 0.043430462 0.091380425
-0.050149783 0.043830037 0.090708993
-0.049695417 0.043830037 0.091380425
-0.055611793 0.035369501 0.094200604
-0.053365543 0.038189679 0.094200604
-0.053518724 0.035369501 0.097020783
-0.052969962 0.035984427 0.097020783
-0.052969962 0.038189679 0.09469822
-0.051123489 0.038189679 0.097020783
-0.052969962 0.038691238 0.094200604
-0.050755247 0.041009858 0.094200604
-0.050149783 0.041537121 0.094200604
-0.050149783 0.039254129 0.097020783
-0.050149783 0.041009858 0.094901547
-0.047375645 0.043830037 0.094200604
-0.048161022 0.041009858 0.097020783
-0.047329608 0.041658297 0.097020783
-0.047329608 0.043830037 0.094249293
-0.044744778 0.043830037 0.097020783
-0.055537309 0.015628256 0.10830149
-0.054492291 0.018448435 0.10830149
-0.053286172 0.021268614 0.10830149
-0.053759657 0.001527369 0.11394185
-0.05306353 0.0043475479 0.11394185
-0.055205174 0.0071677268 0.11112167
-0.054344643 0.0099879056 0.11112167
-0.052969962 0.0047099143 0.11394185
-0.052969962 0.0071677268 0.11333415
-0.052281734 0.0071677268 0.11394185
-0.052969962 0.0099879056 0.11249842
-0.051478337 0.0099879056 0.11394185
-0.052969962 0.001527369 0.114709
-0.05052831 0.001527369 0.11676203
-0.052969962 0.0043475479 0.11402111
-0.050149783 0.0026539192 0.11676203
-0.050149783 0.0043475479 0.11631109
-0.050149783 0.001527369 0.11706124
-0.049622875 0.0043475479 0.11676203
-0.047329608 -0.00028393418 0.11958221
-0.047329608 0.001527369 0.11928703
-0.046940498 0.001527369 0.11958221
-0.047329608 0.0043475479 0.11871824
-0.046187572 0.0043475479 0.11958221
-0.050149783 0.0071677268 0.11569028
-0.050149783 0.0099879056 0.11510643
-0.048873022 0.0071677268 0.11676203
-0.048145499 0.0099879056 0.11676203
-0.047329608 0.0071677268 0.11805201
-0.04523664 0.0071677268 0.11958221
-0.047329608 0.0099879056 0.11741666
-0.044509429 0.009173736 0.11958221
-0.044509429 0.0099879056 0.11939088
-0.044185396 0.0099879056 0.11958221
-0.053521983 0.012808077 0.11112167
-0.052969962 0.014741153 0.11112167
-0.052969962 0.015628256 0.11083688
-0.052707121 0.015628256 0.11112167
-0.052969962 0.012808077 0.11169103
-0.050711539 0.012808077 0.11394185
-0.050149783 0.014820449 0.11394185
-0.050149783 0.015628256 0.11371791
-0.049895022 0.015628256 0.11394185
-0.052969962 0.018448435 0.10979715
-0.051675837 0.018448435 0.11112167
-0.052969962 0.021268614 0.10859589
-0.050319333 0.021268614 0.11112167
-0.050149783 0.018448435 0.11261211
-0.050149783 0.021268614 0.11127548
-0.048508435 0.018448435 0.11394185
-0.047329608 0.020101763 0.11394185
-0.047329608 0.021268614 0.11343253
-0.04648434 0.021268614 0.11394185
-0.050149783 0.012808077 0.114446
-0.047329608 0.012575082 0.11676203
-0.047329608 0.012808077 0.1166967
-0.047241718 0.012808077 0.11676203
-0.047329608 0.015628256 0.11579908
-0.045781955 0.015628256 0.11676203
-0.044509429 0.012808077 0.11857587
-0.044509429 0.015628256 0.11750615
-0.047329608 0.018448435 0.11467296
-0.044509429 0.017393224 0.11676203
-0.044509429 0.018448435 0.11629309
-0.044509429 0.021268614 0.11509007
-0.04271704 0.012808077 0.11958221
-0.041689251 0.014335066 0.11958221
-0.041689251 0.015628256 0.11907017
-0.040744264 0.015628256 0.11958221
-0.043728862 0.018448435 0.11676203
-0.041904483 0.021268614 0.11676203
-0.041689251 0.018448435 0.11795931
-0.038869075 0.01820454 0.11958221
-0.038869075 0.018448435 0.11949706
-0.041689251 0.021268614 0.11690062
-0.038869075 0.021268614 0.11851785
-0.038705118 0.018448435 0.11958221
-0.036829203 0.021268614 0.11958221
-0.054142583 0.032549322 0.099840961
-0.053974461 0.02972915 0.10266114
-0.052969962 0.031106248 0.10266114
-0.052969962 0.032549322 0.10127039
-0.051689517 0.032549322 0.10266114
-0.054833841 0.024088793 0.10548132
-0.053145397 0.026908971 0.10548132
-0.052969962 0.021894477 0.10830149
-0.052969962 0.024088793 0.10719211
-0.051857088 0.024088793 0.10830149
-0.052969962 0.026908971 0.10565134
-0.050477069 0.026908971 0.10830149
-0.052969962 0.027215973 0.10548132
-0.052969962 0.02972915 0.10381448
-0.05137549 0.02972915 0.10548132
-0.050149783 0.031216815 0.10548132
-0.050149783 0.032549322 0.10418918
-0.050149783 0.027527981 0.10830149
-0.050149783 0.02972915 0.10673547
-0.048781138 0.032549322 0.10548132
-0.048577707 0.02972915 0.10830149
-0.047329608 0.030897737 0.10830149
-0.047329608 0.032549322 0.1067741
-0.045173492 0.032549322 0.10830149
-0.052969962 0.033813968 0.099840961
-0.052969962 0.035369501 0.097799733
-0.051406279 0.035369501 0.099840961
-0.050149783 0.036636814 0.099840961
-0.050149783 0.038189679 0.098197229
-0.050149783 0.033987254 0.10266114
-0.050149783 0.035369501 0.10117218
-0.04853468 0.038189679 0.099840961
-0.048564117 0.035369501 0.10266114
-0.047329608 0.036460295 0.10266114
-0.047329608 0.038189679 0.10090175
-0.045422763 0.038189679 0.10266114
-0.047329608 0.039241552 0.099840961
-0.047329608 0.041009858 0.097841844
-0.045278646 0.041009858 0.099840961
-0.044509429 0.04172039 0.099840961
-0.044509429 0.043830037 0.097289436
-0.044509429 0.039060384 0.10266114
-0.044509429 0.041009858 0.10063972
-0.047329608 0.033859089 0.10548132
-0.047329608 0.035369501 0.10384337
-0.045616902 0.035369501 0.10548132
-0.044509429 0.036345422 0.10548132
-0.044509429 0.038189679 0.10355812
-0.044509429 0.033053674 0.10830149
-0.044509429 0.035369501 0.10642823
-0.042314593 0.043830037 0.099840961
-0.042593289 0.041009858 0.10266114
-0.041689251 0.041902706 0.10266114
-0.041689251 0.043830037 0.10054538
-0.039302729 0.043830037 0.10266114
-0.042470008 0.038189679 0.10548132
-0.041775409 0.035369501 0.10830149
-0.041689251 0.035447344 0.10830149
-0.041689251 0.038189679 0.1061415
-0.038931787 0.038189679 0.10830149
-0.041689251 0.0389065 0.10548132
-0.041689251 0.041009858 0.10350691
-0.039201558 0.041009858 0.10548132
-0.038869075 0.04124181 0.10548132
-0.038869075 0.043830037 0.10295216
-0.038869075 0.038254008 0.10830149
-0.038869075 0.041009858 0.1057191
-0.036048897 0.042889223 0.10548132
-0.036048897 0.043830037 0.104564
-0.034147725 0.043830037 0.10548132
-0.036048897 0.040338352 0.10830149
-0.036048897 0.041009858 0.10753401
-0.034390278 0.041009858 0.10830149
-0.033228718 0.041372433 0.10830149
-0.033228718 0.043830037 0.10589444
-0.050149783 0.021609508 0.11112167
-0.050149783 0.024088793 0.1100589
-0.050149783 0.026908971 0.10867053
-0.04897787 0.024088793 0.11112167
