# .PCD v0.7 - Point Cloud Data file format
VERSION 0.7
FIELDS x y z
SIZE 4 4 4
TYPE F F F
COUNT 1 1 1
WIDTH 540
HEIGHT 1
VIEWPOINT 0 0 0 1 0 0 0
POINTS 540
DATA ascii
-0.058931127 0.02972915 0.031669777
0.046002135 0.025609374 0.034989685
-0.061383169 0.032477021 0.037871283
-0.056608673 0.035822388 0.034509923
0.036951173 0.037286356 0.033539116
0.04125423 0.033394989 0.03551621
-0.051944379 0.042136893 0.035989955
-0.04495763 0.046862118 0.034752592
-0.038788266 0.049421646 0.032233711
0.026150303 0.047763798 0.033704519
0.03330563 0.042912893 0.035799764
-0.041689251 0.050928995 0.037797045
-0.0341684 0.053353876 0.035107311
-0.024702942 0.056794364 0.0347577
-0.015222969 0.058018275 0.033937037
-0.0050269365 0.057951469 0.033533446
0.0049827979 0.056952093 0.034592889
0.015190673 0.054049235 0.034956992
0.02215769 0.051708095 0.036384106
-0.013487473 0.06054537 0.03821722
-0.0050269365 0.060571298 0.038173765
0.0006134212 0.06075111 0.039768428
-0.041315489 -0.060532764 0.04831326
-0.034549251 -0.062406592 0.044946436
-0.025117934 -0.065346345 0.045094967
-0.014808513 -0.066336431 0.04453247
-0.0047367993 -0.066142246 0.04489845
0.0050229537 -0.064642422 0.044799071
0.014777356 -0.061960738 0.045167767
0.020379804 -0.060528137 0.04903489
-0.051799037 -0.05277206 0.04558561
-0.045055054 -0.056885488 0.044161137
-0.038869075 -0.058836248 0.040617224
0.017534487 -0.059581548 0.040617224
0.02524182 -0.056105364 0.044424098
0.032094486 -0.052005846 0.046518426
-0.06220803 -0.041833151 0.04579882
-0.057158664 -0.046987444 0.044050664
0.036087457 -0.047100909 0.044268023
0.041026134 -0.041799068 0.045658663
-0.066194937 -0.034939304 0.044842601
0.04550685 -0.035083413 0.044796795
-0.072063476 -0.02350897 0.046598241
-0.069246128 -0.027247448 0.042841408
0.048596997 -0.028796921 0.042624637
0.051927499 -0.02389057 0.045483962
-0.074118622 -0.015397186 0.044845205
0.054453459 -0.015366164 0.044381946
-0.076023072 -0.0056454893 0.044383973
0.056184709 -0.0056723156 0.04580358
-0.075821035 0.0057554254 0.044561755
0.055845756 0.0056234128 0.045222424
-0.07345625 0.015210985 0.044828981
-0.069891036 0.019417778 0.040617224
0.053929009 0.015676267 0.0447318
-0.071749687 0.022099836 0.047432546
-0.068284452 0.026367418 0.044250283
0.048430249 0.02789768 0.043867316
0.05149648 0.023147702 0.045793578
-0.063372046 0.034945842 0.045193195
-0.058621414 0.038203515 0.040595576
0.043878682 0.035445239 0.044750907
-0.060272805 0.041009858 0.049077757
-0.054256 0.045017008 0.044921253
-0.047894757 0.049373619 0.042517066
0.028942754 0.049564227 0.040437795
0.035170622 0.045794487 0.044544704
0.040394455 0.041366551 0.04727998
-0.04373138 0.052838374 0.045307811
-0.035121724 0.056992847 0.044089213
-0.026178271 0.059436187 0.040617224
0.0076638609 0.059372209 0.040617224
0.01561032 0.057870574 0.044018239
0.024682475 0.054165103 0.045365456
0.031635374 0.050565302 0.047667667
-0.030566474 0.060635 0.048184365
-0.024297651 0.0615963 0.045280498
-0.01506929 0.062998474 0.045011908
-0.0050346456 0.063192852 0.045230344
0.0043851407 0.061758161 0.04512047
0.01163398 0.060667109 0.047806181
-0.042835154 -0.060862251 0.055120997
-0.034455068 -0.064877607 0.054584395
-0.024201063 -0.068054534 0.055313222
-0.014897563 -0.068815932 0.054952066
-0.0052953376 -0.06851875 0.055366457
0.005506184 -0.066700637 0.054426141
0.015130288 -0.064050987 0.054646451
0.022303214 -0.06114924 0.054933984
-0.053182397 -0.053709023 0.054718129
-0.046916403 -0.058298875 0.054006014
0.02729035 -0.058088552 0.054740142
0.033124216 -0.053545915 0.054537032
-0.063035801 -0.04402414 0.054884143
-0.058425047 -0.049047939 0.055444308
0.037790049 -0.048638515 0.054328192
0.042368073 -0.043468371 0.055416953
-0.070801526 -0.032314766 0.056128204
-0.068469562 -0.035854861 0.054216545
0.04756736 -0.036196858 0.054122638
0.050907828 -0.031461332 0.056128204
-0.073725 -0.025029842 0.054819748
0.05345742 -0.025412396 0.054428566
-0.076893486 -0.01528714 0.054887261
0.056858849 -0.014980753 0.054614671
-0.078650035 -0.0057126242 0.054065939
0.057953484 -0.0055230781 0.054718118
-0.078660823 0.0059829825 0.054024909
0.057471812 0.0063345786 0.054139387
-0.076591827 0.015743148 0.054628726
0.056264594 0.014864177 0.055108301
-0.073030941 0.024728728 0.055299342
-0.069712251 0.029482314 0.053195454
0.049995035 0.02972915 0.051897936
0.052695706 0.024849761 0.054648582
-0.066269904 0.035445366 0.054792423
0.047012635 0.034982596 0.054635171
-0.061660036 0.041232884 0.054394227
-0.055775218 0.046649989 0.054733731
0.036485877 0.047814686 0.053975392
0.041622877 0.042294256 0.054955427
-0.050149783 0.051058955 0.054718118
-0.044809744 0.054742061 0.054657552
-0.038385164 0.058483146 0.053330682
0.017534487 0.059605852 0.051897936
0.024724459 0.056784838 0.05473223
0.031937949 0.052022085 0.055118889
-0.033629648 0.061305113 0.054909222
-0.02525913 0.0638512 0.054720148
-0.014762962 0.066085182 0.055096418
-0.0049226568 0.066022694 0.05546096
0.0054227533 0.063910522 0.054601606
0.014927334 0.061101697 0.055165756
-0.043437645 -0.060847588 0.064588733
-0.03484349 -0.064933568 0.06458874
-0.02403295 -0.068544239 0.064763173
-0.015146403 -0.069577985 0.064893171
-0.0040021562 -0.069273092 0.06457413
0.0048436839 -0.067786194 0.064588733
0.014822452 -0.065127 0.064529635
0.022645002 -0.061538771 0.06458874
-0.053395983 -0.054008663 0.06458874
-0.04811351 -0.058202211 0.064588733
0.027849359 -0.058175348 0.064531788
0.033862438 -0.053286918 0.064548932
-0.063197389 -0.044088401 0.064519428
-0.058539689 -0.049156547 0.06425184
0.038099926 -0.049378004 0.065434791
0.043133117 -0.043826237 0.06458874
-0.070994623 -0.032314766 0.064588733
-0.068469539 -0.03670511 0.0648949
0.048382245 -0.03641481 0.06458874
0.0512271 -0.03204751 0.064588733
-0.074226789 -0.025385788 0.064588748
0.054371238 -0.025559995 0.064520851
-0.077892087 -0.014618102 0.064746171
0.057189073 -0.0156991 0.064841338
-0.079136916 -0.0055230781 0.064588733
0.058528632 -0.0055230781 0.064588733
-0.079038709 0.0061827921 0.065002374
0.058029015 0.0057576373 0.064588733
-0.077553391 0.014827922 0.064205669
0.056690082 0.015261607 0.064588733
-0.07364545 0.024920849 0.064593658
0.052736938 0.025450602 0.064588748
-0.06705565 0.035333537 0.064621478
0.047164604 0.035781343 0.064581059
-0.061604161 0.042045053 0.064024709
-0.056217648 0.047103822 0.064870745
0.037120875 0.047975786 0.06458874
0.041860182 0.042830959 0.064588733
-0.050937485 0.051499166 0.064387292
-0.044759959 0.055588495 0.064650051
-0.038869075 0.059067313 0.064588733
0.025094165 0.057090461 0.06458874
0.032880284 0.051977735 0.064588733
-0.034020856 0.061572798 0.06465701
-0.025781456 0.064476356 0.06458874
-0.015049297 0.066472217 0.065137044
-0.0047295587 0.066758335 0.064263329
0.0038988956 0.065685362 0.064934768
0.014714055 0.062171776 0.064588748
-0.041979119 -0.060662411 0.074732438
-0.034410357 -0.063958049 0.074376792
-0.024940912 -0.06653627 0.075166941
-0.014452506 -0.068413138 0.073684312
-0.0051556332 -0.068573751 0.073948026
0.0053909076 -0.066438533 0.074543938
0.015173977 -0.063016959 0.074952863
0.021218479 -0.060751624 0.072875097
-0.052434649 -0.053443789 0.074638329
-0.046472259 -0.058203794 0.07450445
0.02585813 -0.057069175 0.074986435
0.032712385 -0.052528184 0.073910907
-0.062564954 -0.042237461 0.074082389
-0.057808243 -0.047737099 0.075077072
0.036832981 -0.048381072 0.075449951
0.041901309 -0.043330096 0.074346729
-0.067453049 -0.035105057 0.07469783
0.047249351 -0.035588779 0.074950062
0.050811924 -0.031200035 0.07163918
-0.073118784 -0.024514504 0.073920429
-0.069836318 -0.029391948 0.077100806
0.049912617 -0.029494591 0.077279538
0.053086191 -0.024921445 0.074597083
-0.076281108 -0.015288871 0.075039476
0.05596333 -0.014792852 0.074385568
-0.078037113 -0.0052399212 0.073865466
0.057434957 -0.0055649709 0.075226545
-0.077426307 0.0057576373 0.074092731
0.057260804 0.0057217502 0.075119302
-0.075709671 0.015852772 0.074686855
0.055366199 0.015347946 0.074514292
-0.072512522 0.024278017 0.074633814
-0.069658697 0.028925559 0.075963587
0.049022965 0.02972915 0.076541603
0.052155845 0.024661331 0.074135266
-0.065054797 0.03550794 0.074752286
0.046280485 0.035115734 0.074890465
-0.061161201 0.040983003 0.072255537
-0.05512891 0.046356604 0.074456945
0.036099501 0.047366031 0.074434057
0.041402429 0.042002186 0.073395602
-0.050149783 0.050821312 0.07304927
-0.045129512 0.054154243 0.074391082
-0.038061988 0.058388453 0.074514709
0.018300727 0.058347791 0.078184731
0.02477519 0.055881791 0.074875191
0.031429876 0.051856272 0.073446773
-0.032367643 0.061108917 0.074441113
-0.024957523 0.063682601 0.074609213
-0.014897563 0.065144904 0.074459367
-0.0049501061 0.065985464 0.073407099
0.0058375318 0.064324223 0.07464429
0.015030765 0.061218809 0.074193515
-0.033695001 -0.061342441 0.082898833
-0.025074119 -0.063338459 0.084733449
-0.015256315 -0.065337002 0.084541999
-0.0046221414 -0.065343916 0.084803469
0.0049528275 -0.06348034 0.08446236
0.013529311 -0.061051156 0.082378
-0.050843682 -0.0520202 0.082212016
-0.044865251 -0.055326927 0.084456235
-0.037234347 -0.058009136 0.086915515
0.015971554 -0.058088254 0.087001964
0.024265124 -0.054541785 0.084235549
0.031008802 -0.051537532 0.080099717
-0.06125569 -0.040844291 0.080956012
-0.055322036 -0.045718778 0.08496929
0.02861334 -0.049053755 0.088307545
0.034831613 -0.04532114 0.08461827
0.04041706 -0.041091599 0.08139585
-0.063958474 -0.034818266 0.084270962
-0.059220798 -0.038762622 0.088560246
0.037878126 -0.038781635 0.088560246
0.042945981 -0.034989417 0.084331624
-0.071572468 -0.022436846 0.081501208
-0.068313152 -0.026208317 0.085275389
0.047572188 -0.02616304 0.085231237
0.051387168 -0.022456359 0.081522517
-0.073035613 -0.015334504 0.084232032
-0.069891036 -0.018818431 0.088995956
0.049549013 -0.018213876 0.088560246
0.052653041 -0.014828557 0.084149703
-0.074408546 -0.0056736893 0.084916517
0.054201696 -0.0057245195 0.084708996
-0.074129164 0.0056762081 0.084572464
0.053665832 0.006229959 0.084743664
-0.07275781 0.015434539 0.084066078
-0.069793515 0.017447548 0.088592403
0.048966847 0.017961295 0.088717796
0.052144125 0.015299716 0.083498679
-0.071819402 0.021831935 0.080804765
-0.067523517 0.025982179 0.085023537
0.047041234 0.026254855 0.08512494
0.051005889 0.021942658 0.080746606
-0.062925033 0.033979945 0.083678737
-0.058381595 0.0377496 0.086707316
0.038557887 0.038769823 0.087620191
0.042688623 0.034861915 0.08416944
-0.053929437 0.044171214 0.083751746
-0.047294278 0.048968542 0.086179905
0.027728479 0.049342535 0.087509401
0.034480263 0.045249738 0.08412236
0.040110119 0.041026469 0.080132127
-0.043557182 0.052912962 0.083854765
-0.035099197 0.057003908 0.084800251
-0.026307141 0.058644719 0.08817675
0.008133891 0.059406474 0.087620191
0.01528848 0.057425864 0.085292332
0.02386074 0.053343102 0.083764933
-0.030437723 0.060763188 0.080130905
-0.024591701 0.061291981 0.083283611
-0.015100917 0.062525071 0.084361419
-0.0047694934 0.063293695 0.084082223
0.0043275352 0.061959274 0.084082581
0.011987945 0.060797378 0.080223709
-0.023502624 -0.060578298 0.091493338
-0.01465416 -0.061391804 0.092957027
-0.0053775795 -0.061211795 0.093009658
0.0030742227 -0.06068293 0.091446325
-0.042675439 -0.052118484 0.092406005
-0.034473643 -0.054506965 0.094994389
-0.025291251 -0.057147767 0.096635625
-0.014897563 -0.057789605 0.098500356
-0.0046682707 -0.057546418 0.098185912
0.0051417113 -0.056315705 0.096432462
0.01456973 -0.05396248 0.095057309
0.021627745 -0.052088212 0.092026085
-0.052236483 -0.04286366 0.094007172
-0.045666717 -0.046778113 0.096559122
-0.03867067 -0.049099155 0.099676713
0.017255984 -0.049073674 0.09962409
0.025517421 -0.045923315 0.096038237
0.032535076 -0.041804481 0.093013473
-0.061149549 -0.032426581 0.092201777
-0.056379166 -0.035847373 0.09599869
0.035290495 -0.035773542 0.095987111
0.040342499 -0.032465428 0.092547402
-0.063806407 -0.024862589 0.094711728
-0.058905542 -0.028688937 0.099075139
0.038228109 -0.028041303 0.099336997
0.042756144 -0.024788696 0.094698459
-0.070554599 -0.012573525 0.091380425
-0.067034274 -0.015515075 0.095622927
0.046188653 -0.015417187 0.095232546
-0.071126364 -0.0045830188 0.092320494
-0.068165101 -0.0059128772 0.096966095
0.047807392 -0.0059255161 0.09712895
0.051156417 -0.0044505792 0.091220148
-0.070903435 0.0049115838 0.091944456
-0.06747555 0.006233152 0.096748136
0.04736124 0.0061151786 0.096644461
0.051240008 0.0035399708 0.091338627
-0.06627319 0.015515362 0.095385589
0.045607727 0.015494846 0.095498852
-0.063194185 0.024556229 0.094553784
-0.058340989 0.027793169 0.098637894
0.037565324 0.027593352 0.098839581
0.042605154 0.024779253 0.09454456
-0.061430499 0.030564323 0.091380425
-0.054750018 0.03527708 0.095500357
-0.047932144 0.038715616 0.099840961
0.028815195 0.039828613 0.099840961
0.035006303 0.035631433 0.095975578
0.04016149 0.032659441 0.091488108
-0.05126369 0.041711837 0.092409261
-0.044781551 0.04522882 0.095273703
-0.037159935 0.048492324 0.098802291
0.017048027 0.048745953 0.099045172
0.025137076 0.045690749 0.095861942
0.032543432 0.042024381 0.09302298
-0.041689251 0.050712526 0.091380425
-0.03404332 0.052983295 0.094142005
-0.024961093 0.055419594 0.095534012
-0.015292389 0.056901693 0.096150987
-0.0052784407 0.056680474 0.09743762
0.005073084 0.055992488 0.095506251
0.014273843 0.053321037 0.09459684
0.020852525 0.051442921 0.091873907
-0.010667294 0.060484178 0.090787485
-0.0050269365 0.0606317 0.09112829
-0.031818628 -0.051511072 0.10189247
-0.024942845 -0.052757841 0.10365282
-0.014543429 -0.053293414 0.10460921
-0.0050904462 -0.05316918 0.10465849
0.0041606254 -0.051587384 0.10259701
-0.043890815 -0.042178389 0.10349569
-0.035312429 -0.04587657 0.1060535
-0.024673352 -0.049160033 0.10821427
-0.017787037 -0.04929065 0.10836857
-0.0030054692 -0.049189217 0.10852839
0.0052841762 -0.047083598 0.10707124
0.014792879 -0.045096684 0.10556498
0.02255095 -0.042444319 0.10345464
-0.051856551 -0.033636466 0.10389595
-0.046078626 -0.03625837 0.10730736
0.025499845 -0.035758082 0.10619418
0.032043166 -0.033450581 0.10221618
-0.061159253 -0.021034054 0.10225984
-0.055774059 -0.025619796 0.10572218
0.028354451 -0.028321888 0.10856464
0.034297097 -0.025041208 0.10505324
0.04009591 -0.021034054 0.10061715
-0.06215116 -0.01509521 0.10346445
-0.058892075 -0.016281307 0.10778751
0.036740724 -0.015840109 0.10689
0.041009139 -0.014494359 0.10283257
-0.062860876 -0.0056652869 0.10528968
0.037713643 -0.0055230781 0.10865363
0.042611774 -0.0055323634 0.10388332
-0.062495176 0.0052684075 0.10395931
-0.058331635 0.0061569521 0.10844707
0.037701614 0.0057576373 0.10868737
0.042041723 0.0057508391 0.10401841
-0.061235797 0.015421691 0.10247244
-0.056812312 0.015732359 0.10697857
0.036529996 0.015884893 0.10671914
0.040716268 0.014536959 0.10300724
-0.054347605 0.02516639 0.10512605
-0.047953658 0.02972915 0.10878958
0.028099317 0.028981119 0.10875271
0.03380467 0.025089564 0.10510507
0.04009591 0.021268614 0.10012072
-0.051175512 0.032761112 0.10287093
-0.045025874 0.035538834 0.10563937
-0.038889982 0.038211122 0.10831739
0.017953759 0.038517483 0.10857837
0.025373552 0.035577919 0.1058572
0.031545348 0.033128016 0.10198393
-0.042434093 0.041752465 0.10200286
-0.034442615 0.044085778 0.10501081
-0.025164997 0.047048725 0.10622101
-0.014899855 0.048996061 0.10816713
-0.0050269365 0.048011865 0.10814106
0.0058044358 0.047397953 0.10646728
0.014849467 0.044565752 0.10485375
0.022147175 0.04153499 0.10295769
-0.023358095 0.051699888 0.10201867
-0.014944571 0.052439831 0.10366941
-0.0050269365 0.051773716 0.10373929
0.0030693077 0.05192592 0.10287274
-0.032461494 -0.041669626 0.11199292
-0.024157122 -0.043586273 0.11360145
-0.014680625 -0.044618201 0.11418873
-0.0053254399 -0.044302512 0.11348771
0.003983188 -0.041780401 0.11211681
0.011894129 -0.040775299 0.11044289
-0.042554393 -0.033186451 0.11201538
-0.034826316 -0.035139836 0.11541801
-0.026002167 -0.03691278 0.11859825
-0.014897563 -0.037714135 0.11941411
-0.0042402432 -0.037015453 0.11855044
0.0050424333 -0.035390902 0.11693855
0.014709992 -0.035130832 0.11324567
0.021581538 -0.032858998 0.11106277
-0.051523305 -0.023072952 0.11176038
-0.044927116 -0.025196958 0.1151731
-0.037605904 -0.027231291 0.11872204
0.0087008383 -0.029181968 0.11942637
0.015410677 -0.026103223 0.11773179
0.024284385 -0.024393655 0.11336573
-0.053714748 -0.015135002 0.11350159
-0.046059474 -0.016124003 0.11833238
0.01792771 -0.018766716 0.11958221
0.024824295 -0.015584188 0.11666113
0.03235786 -0.01457628 0.11157606
-0.054959681 -0.0056473957 0.11406434
-0.047398824 -0.0052611171 0.1196286
0.02560314 -0.0057133627 0.11773413
0.032992929 -0.0054444079 0.11235011
-0.05314457 0.0051844278 0.11354318
-0.046732988 0.0066712247 0.11854322
0.027317474 0.0058824769 0.1178213
0.033109177 0.0054470631 0.11258949
-0.051647779 0.014961414 0.11233403
-0.045057844 0.015641522 0.11705632
-0.038814425 0.018367138 0.11955383
0.025225591 0.01601533 0.11715984
0.032269724 0.01431142 0.11175867
-0.05019217 0.022058882 0.11089443
-0.044558205 0.02501159 0.11339783
-0.035795011 0.026428198 0.11744874
-0.027458271 0.029671453 0.11954337
0.009496063 0.02972915 0.11976864
0.016022269 0.026691426 0.11799026
0.024171475 0.024879782 0.11400201
0.030277252 0.021268614 0.11112167
-0.041230079 0.032139067 0.1108302
-0.034055557 0.035202414 0.11273845
-0.024791485 0.03527398 0.11620805
-0.015156952 0.035599373 0.11790172
-0.0050269365 0.036778983 0.11819999
0.0054735867 0.035778053 0.11711586
0.014390613 0.035051446 0.11327
0.021297989 0.032332122 0.11126009
-0.024371644 0.042037383 0.11143418
-0.014921139 0.043670289 0.11287266
-0.0050269365 0.042858075 0.11295259
0.0041415347 0.042105462 0.11220998
0.011894129 0.041009858 0.11005326
-0.030408539 -0.032314766 0.12003523
-0.024195155 -0.032691892 0.12184771
-0.014526339 -0.033335112 0.12208471
-0.0058327024 -0.032872237 0.12147743
0.0006134212 -0.032314766 0.12040816
-0.033246998 -0.024149232 0.12294743
-0.024876969 -0.024958983 0.12569195
-0.014897563 -0.025414214 0.12673801
-0.004925224 -0.025491297 0.12505881
0.0045783115 -0.024583459 0.12276456
0.012834189 -0.021974115 0.12073565
-0.042009637 -0.01421249 0.12185969
-0.03524863 -0.015898872 0.1250086
-0.025858499 -0.015486186 0.12851702
-0.013800827 -0.016020404 0.1291922
-0.0050967811 -0.015877998 0.12810346
0.0050347471 -0.015312994 0.12601195
0.014430517 -0.015611251 0.12225933
0.020354666 -0.012573525 0.12015088
-0.043090463 -0.0055230781 0.12236782
-0.035105705 -0.0055230781 0.1258775
-0.026060466 -0.0052410606 0.12886143
-0.014427533 -0.0069331676 0.12981495
-0.0043218918 -0.0090483017 0.12944373
0.004863108 -0.0055372692 0.12801018
0.015026893 -0.0058166585 0.12404655
0.020918701 -0.0046770247 0.12120495
-0.042352296 0.0047717653 0.12174793
-0.034737669 0.0058386805 0.12494775
-0.024955366 0.0055157384 0.1280266
-0.015685612 0.0067313816 0.12885299
-0.0054298197 0.0079734921 0.12957044
0.0052994625 0.0053086737 0.12913813
0.014274785 0.0057542715 0.12593345
0.021354228 0.0054511018 0.12202173
-0.041689251 0.012808077 0.12014928
-0.034271415 0.014970477 0.12291756
-0.024801198 0.016163897 0.12549989
-0.014848896 0.01525797 0.12724127
-0.0053295987 0.015794586 0.12814534
0.0055692345 0.015808014 0.12766086
0.014929763 0.015423154 0.12369507
0.020354666 0.013105097 0.12158196
-0.031264633 0.022940462 0.12155436
-0.024736376 0.024975084 0.12223446
-0.014958474 0.025432225 0.12360755
-0.0051095546 0.02627586 0.12416892
0.0045885686 0.025237693 0.12380502
0.012496697 0.023163535 0.12173166
-0.012077384 0.032549322 0.1204121
-0.0050269365 0.032549322 0.12087469
0.0020235069 0.032549322 0.12062141
-0.02194801 -0.012573525 0.13008513
-0.018187772 -0.013513583 0.13015896
-0.02194801 -0.0097533464 0.13004796
-0.015006032 -0.0051976731 0.13020594
-0.0053794589 -0.0037604664 0.13033347
-0.012077384 0.001527369 0.13009982
-0.004462901 0.0026554407 0.13020185
