# .PCD v0.7 - Point Cloud Data file format
VERSION 0.7
FIELDS x y z
SIZE 4 4 4
TYPE F F F
COUNT 1 1 1
WIDTH 1545
HEIGHT 1
VIEWPOINT 0 0 0 1 0 0 0
POINTS 1545
DATA ascii
-0.069891 0.0317301 0.0603585
0.0316354 0.0506306 0.0772795
0.0147143 0.0614652 0.0744594
-0.0773584 0.0156283 0.0575383
-0.0416893 -0.0617338 0.0631786
-0.00220676 0.0663657 0.0716392
0.0550075 0.00998791 0.0800997
0.0504782 0.0240888 0.0800997
-0.00269178 0.0663915 0.0716392
0.0490715 0.026909 0.0800997
0.0485564 0.0278996 0.0800997
0.0555636 0.00716773 0.0800997
-0.0775123 -0.0153937 0.0575383
0.0231748 -0.0589874 0.0744594
-0.0191278 -0.0695662 0.0659988
-0.0275884 0.0637687 0.068819
0.0475896 0.0297292 0.0800997
0.0559706 0.00434755 0.0800997
0.0541968 0.0128081 0.0804153
-0.0281565 0.0635713 0.068819
-0.00502694 0.0664285 0.0716392
-0.0614305 0.0424899 0.0631786
0.0294338 0.0522906 0.0772795
0.0547746 -0.0125735 0.0800997
0.0513766 0.0212686 0.0805139
0.05621 0.00152737 0.0800997
-0.049883 0.0522906 0.0659988
0.0381044 -0.0464157 0.0772795
-0.00628646 0.0663915 0.0716392
-0.0781796 -0.0125735 0.0575383
0.0288152 0.052714 0.0772795
0.0554244 -0.00975335 0.0800997
-0.0783516 -0.0116061 0.0575383
-0.0614305 -0.0465651 0.0603585
-0.00502694 -0.0694539 0.068819
-0.0501498 0.0521129 0.0659988
-0.00784712 0.0662887 0.0716392
-0.0615773 -0.0464157 0.0603585
-0.0781968 0.0128081 0.0575383
-0.0786488 -0.00975335 0.0575383
0.00909518 -0.0661569 0.0716392
0.00907395 -0.0661634 0.0716392
0.0542225 -0.0153937 0.0800997
0.0118941 0.0625142 0.0744594
0.00907395 -0.0661569 0.0716641
0.0541968 -0.0155584 0.0800997
0.0429161 0.0381897 0.0793491
-0.0304085 0.0627397 0.068819
-0.00502694 0.0663915 0.071867
-0.0712181 0.0297292 0.0603585
-0.0783516 0.0122365 0.0575383
0.0372757 -0.0473057 0.0772795
0.0560067 -0.00693317 0.0800997
0.046102 0.0325493 0.0800997
0.0541968 -0.0153937 0.0801696
0.0564411 -0.00129281 0.0800997
0.0400959 -0.0435955 0.0780948
-0.0442139 -0.0605165 0.0631786
-0.0106673 0.0660694 0.0716392
0.0288152 -0.0548762 0.075959
0.0457363 0.0332541 0.0800997
-0.0791 -0.00693317 0.0575383
0.0564264 -0.00411299 0.0800997
-0.0628075 0.0410099 0.0631786
-0.0445094 -0.0603784 0.0631786
0.025995 0.0545059 0.0772795
-0.021948 -0.0691563 0.0659988
0.0499508 -0.0266744 0.0800997
-0.0788385 0.00998791 0.0575383
-0.0332287 0.0615443 0.068819
0.0513766 -0.0239384 0.0800997
0.0514193 -0.0238542 0.0800997
0.0249065 0.0551108 0.0772795
0.0536886 -0.0182139 0.0800997
-0.0227283 -0.0689771 0.0659988
-0.0791947 0.00716773 0.0575383
0.0206895 -0.0605165 0.0744594
0.0352296 -0.0492358 0.0772795
0.0513766 -0.0238542 0.0801902
0.0527619 -0.0210341 0.0800997
0.0203547 -0.0607111 0.0744594
0.0203547 0.0579309 0.0766441
-0.0794701 0.00434755 0.0575383
0.0485728 -0.0294946 0.0800997
0.0485564 -0.0295307 0.0800997
0.0457363 -0.0351349 0.0795004
-0.0586103 -0.0492358 0.0615567
0.0445171 0.0353695 0.0800997
0.0485564 -0.0294946 0.0801331
0.0344556 -0.049903 0.0772795
0.0231748 0.0560746 0.0772795
-0.00784712 -0.0696872 0.068819
-0.0795403 -0.00411299 0.0575383
0.00625377 -0.0669557 0.0716392
-0.0641164 -0.0435955 0.0603585
0.00907395 0.0634718 0.0744594
-0.0247682 -0.0684634 0.0659988
-0.0642507 -0.0434223 0.0603585
-0.0350787 0.0607511 0.068819
-0.0134875 0.0659057 0.0716392
0.00877129 0.0635713 0.0744594
-0.0642507 0.0393037 0.0631786
-0.05297 0.050092 0.0659988
0.0485564 0.026909 0.0811843
-0.0360489 0.0603237 0.068819
-0.0727112 0.0273262 0.0603585
-0.0797741 0.00152737 0.0575383
0.0471192 -0.0323148 0.0800997
0.0429161 0.037726 0.0800997
-0.0798252 -0.00129281 0.0575383
0.0425605 0.0381897 0.0800997
-0.0661989 -0.0407753 0.0603585
-0.0729491 0.026909 0.0603585
-0.0473296 -0.058802 0.0631786
-0.0651207 0.0381897 0.0631786
-0.0275884 -0.0676678 0.0659988
-0.0537855 0.0494704 0.0659988
-0.0106673 -0.0696292 0.068819
0.031891 -0.052056 0.0772795
0.0457363 0.0325493 0.0809336
-0.0670709 -0.0395242 0.0603585
0.0316354 -0.0522595 0.0772795
0.0203547 -0.0605165 0.0750254
0.0457363 -0.0346158 0.0800997
-0.0163077 0.0656532 0.0716392
0.0401385 0.0410099 0.0800997
0.0400959 0.0410597 0.0800997
0.0203547 0.0576514 0.0772795
0.0454104 -0.0351349 0.0800997
-0.0388691 0.0588751 0.068819
0.00343359 -0.0676193 0.0716392
0.0541968 0.00998791 0.0817434
0.0400959 0.0410099 0.0801969
0.0198332 0.0579309 0.0772795
-0.0681324 -0.0379551 0.0603585
0.0175345 -0.0622649 0.0744594
-0.0490738 -0.0576964 0.0631786
0.00625377 0.0643845 0.0744594
-0.0304085 -0.0667229 0.0659988
0.0288152 0.0522906 0.0785462
-0.0405871 0.0579309 0.068819
-0.0134875 -0.0694484 0.068819
0.0434529 -0.0379551 0.0800997
-0.0501498 -0.0569504 0.0631786
-0.0557901 0.0477845 0.0659988
-0.0783516 0.0128081 0.0587354
-0.0191278 0.0652366 0.0716392
-0.0698355 -0.0351349 0.0603585
-0.069891 -0.0350262 0.0603585
0.0316354 -0.052056 0.0777514
-0.031992 -0.0661569 0.0659988
0.0429161 -0.038712 0.0800997
0.0372757 -0.0464157 0.0788219
-0.0670709 0.0356378 0.0631786
0.0377241 0.04383 0.0800997
-0.0416893 0.0573297 0.068819
0.0288152 -0.0544273 0.0772795
-0.0672673 0.0353695 0.0631786
-0.074472 0.0240888 0.0603585
-0.0712916 -0.0323148 0.0603585
0.0372757 0.0443465 0.0800997
-0.0332287 -0.0657045 0.0659988
0.0281786 -0.0548762 0.0772795
-0.0526835 -0.0548762 0.0631786
0.000613421 -0.0681695 0.0716392
-0.05297 -0.0546142 0.0631786
0.014997 -0.0633367 0.0744594
0.0175345 0.0591815 0.0772795
-0.05701 0.0466502 0.0659988
0.0147143 -0.0634393 0.0744594
0.0541968 -0.0125735 0.0817934
-0.055581 -0.052056 0.0631786
0.0413805 -0.0407753 0.0800997
-0.0557901 -0.0518516 0.0631786
-0.0726763 -0.0294946 0.0603585
-0.0727112 -0.0294157 0.0603585
0.0344556 -0.0492358 0.07867
-0.021948 -0.0689771 0.0675542
0.00343359 0.0651749 0.0744594
-0.0163077 -0.0693176 0.068819
-0.0783516 -0.0125735 0.0592646
-0.0738693 -0.0266744 0.0603585
-0.0360489 -0.0644685 0.0659988
-0.021948 0.0647942 0.0716392
-0.0755314 0.0215883 0.0603585
-0.0756443 0.0212686 0.0603585
-0.0586103 0.0450391 0.0659988
0.0400959 -0.0423937 0.0800997
-0.0275884 0.0635713 0.070844
-0.0445094 0.0557287 0.068819
0.0350979 0.0466502 0.0800997
0.0147143 0.0607511 0.0769482
0.025995 -0.0564038 0.0772795
0.0147143 -0.0633367 0.0748476
-0.0749634 -0.0238542 0.0603585
0.0513766 0.0184484 0.0828118
0.0344556 0.0472724 0.0800997
0.0118941 -0.0644479 0.0744594
-0.0755314 -0.0222022 0.0603585
-0.0384328 -0.0633367 0.0659988
0.0390955 -0.0435955 0.0800997
-0.04554 0.0551108 0.068819
-0.0759252 -0.0210341 0.0603585
-0.0586048 -0.0492358 0.0631786
-0.0586103 -0.0492308 0.0631786
-0.0597854 0.04383 0.0659988
0.0513352 0.0184484 0.0829199
0.0513766 0.018335 0.0829199
-0.0388691 -0.0631297 0.0659988
0.0502397 0.0212686 0.0829199
0.000613421 0.0656383 0.0744594
0.0536626 0.00998791 0.0829199
-0.0766357 0.0184484 0.0603585
0.0523215 0.0156283 0.0829199
0.0530904 0.0128081 0.0829199
-0.00220676 -0.068712 0.0716392
0.0490505 0.0240888 0.0829199
0.0429161 -0.0379551 0.0811145
0.0147143 0.060619 0.0772795
0.0541968 0.00731776 0.0829199
0.0542278 0.00716773 0.0829199
-0.0694064 0.0325493 0.0631786
0.0485564 0.025246 0.0829199
0.0144235 0.0607511 0.0772795
-0.0247682 0.0642691 0.0716392
-0.0473296 0.0538529 0.068819
0.0541968 0.00716773 0.0829978
0.0240098 -0.0576964 0.0772795
-0.00220676 0.0657962 0.0744594
0.0477709 0.026909 0.0829199
0.0319166 0.0494704 0.0800997
0.0316354 0.0496851 0.0800997
-0.0191278 -0.0691792 0.068819
0.0372757 -0.0456713 0.0800997
0.0547426 0.00434755 0.0829199
-0.0769202 -0.0182139 0.0603585
-0.069891 0.0318836 0.0631786
0.0231748 -0.0581714 0.0772795
-0.00502694 0.0658248 0.0744594
0.0462921 0.0297292 0.0829199
-0.00375111 -0.0689771 0.0716392
-0.0416893 -0.0617339 0.0659988
-0.0614305 0.0421538 0.0659988
0.00907395 -0.0654312 0.0744594
-0.0776002 0.0156283 0.0603585
0.0365945 -0.0464157 0.0800997
-0.0494064 0.0522906 0.068819
0.0372757 0.04383 0.0812486
-0.0614305 -0.0464157 0.0631333
0.055109 0.00152737 0.0829199
0.0457363 0.0308166 0.0829199
-0.0272883 0.0635713 0.0716392
-0.0614268 -0.0464157 0.0631786
-0.0614305 -0.0464117 0.0631786
-0.0275884 0.0634705 0.0716392
0.0288152 0.0517438 0.0800997
-0.020827 -0.0689771 0.068819
0.0538073 -0.0125735 0.0829199
-0.0501498 0.0517581 0.068819
0.0541968 -0.0109016 0.0829199
0.0279669 0.0522906 0.0800997
-0.00784712 0.065786 0.0744594
0.0531201 -0.0153937 0.0829199
-0.077815 -0.0153937 0.0603585
0.0544519 -0.00975335 0.0829199
-0.00502694 -0.0691392 0.0716392
0.0457363 -0.0323148 0.0824757
0.0485564 -0.0266744 0.082882
0.0231748 0.0551108 0.0797776
0.0553651 -0.00129281 0.0829199
0.0485564 -0.0266383 0.0829199
0.04481 0.0325493 0.0829199
0.048538 -0.0266744 0.0829199
-0.062498 0.0410099 0.0659988
0.0118941 0.0618876 0.0772795
-0.021948 -0.0687584 0.068819
-0.0304085 0.0623606 0.0716392
0.0500274 -0.0238542 0.0829199
0.0549959 -0.00693317 0.0829199
0.0523683 -0.0182139 0.0829199
0.025995 0.0534655 0.0800997
-0.0783516 -0.0129775 0.0603585
-0.0784214 -0.0125735 0.0603585
-0.0783516 0.0131282 0.0603585
0.0553516 -0.00411299 0.0829199
0.0203547 -0.0597642 0.0772795
0.0513766 -0.0210476 0.0829199
0.0513822 -0.0210341 0.0829199
0.0513766 -0.0210341 0.0829312
-0.0106673 0.0655884 0.0744594
0.0344556 -0.048546 0.0800997
-0.0784395 0.0128081 0.0603585
-0.07888 -0.00975335 0.0603585
0.047081 -0.0294946 0.0829199
0.0316354 0.0494704 0.0807133
0.00672 -0.0661569 0.0744594
-0.0713891 0.0297292 0.0631786
-0.0332287 0.0611196 0.0716392
0.0336937 -0.0492358 0.0800997
-0.0442658 -0.0605165 0.0659988
0.00625377 -0.0662895 0.0744594
0.0231748 0.0550012 0.0800997
-0.0792951 -0.00693317 0.0603585
-0.0639287 -0.0435955 0.0631786
0.0229529 0.0551108 0.0800997
-0.0247682 -0.0680631 0.068819
0.0457363 -0.031866 0.0829199
-0.0340704 0.0607511 0.0716392
0.0431012 0.0353695 0.0829199
-0.0642507 -0.0431905 0.0631786
-0.0445094 -0.0604037 0.0659988
0.0454637 -0.0323148 0.0829199
-0.00784712 -0.0692411 0.0716392
-0.0134875 0.0652913 0.0744594
0.0429161 0.035662 0.0829199
-0.0191278 -0.0689771 0.0697641
0.0189582 -0.0605165 0.0772795
-0.0795764 0.00434755 0.0603585
-0.0790727 0.00998791 0.0603585
-0.0163077 -0.0689771 0.070511
-0.0793937 0.00716773 0.0603585
-0.0642507 0.038938 0.0659988
-0.079634 -0.00411299 0.0603585
0.0485564 0.0240888 0.0840494
-0.0360489 0.0598177 0.0716392
-0.0134875 -0.0689771 0.0712087
0.0203547 0.0564025 0.0800997
-0.05297 0.0497272 0.068819
-0.0798144 0.00152737 0.0603585
-0.0106673 -0.0690753 0.0716392
0.0436732 -0.0351349 0.0829199
-0.0648337 0.0381897 0.0659988
0.0316354 -0.0510191 0.0800997
-0.066074 -0.0407753 0.0631786
-0.0798675 -0.00129281 0.0603585
0.0411317 0.0381897 0.0829199
0.00907395 0.063021 0.0772795
-0.0533272 0.0494704 0.068819
-0.0670709 0.0353695 0.0654072
0.0175345 -0.0612377 0.0772795
0.0429161 0.0353695 0.0832908
-0.0275884 -0.0673276 0.068819
0.0541968 -0.00975335 0.0836627
-0.0120069 -0.0689771 0.0716392
-0.0163077 0.0650039 0.0744594
-0.0727112 0.027521 0.0631786
0.0344556 0.0466502 0.0816907
0.0429161 -0.0363559 0.0829199
-0.0670709 -0.0393691 0.0631786
0.0400959 0.0395368 0.0829199
0.00343359 -0.067015 0.0744594
0.00625377 -0.0661569 0.0750421
-0.0730262 0.026909 0.0631786
0.0303822 -0.052056 0.0800997
-0.0388691 0.0583756 0.0716392
-0.00502694 -0.0689771 0.0726153
0.0457363 0.0297292 0.0841461
-0.0473296 -0.0588335 0.0659988
-0.0680114 -0.0379551 0.0631786
-0.0134875 -0.068878 0.0716392
0.0175345 0.0579309 0.0799951
0.00726809 0.0635713 0.0772795
-0.0106673 -0.0689771 0.0720779
-0.039746 0.0579309 0.0716392
0.0418667 -0.0379551 0.0829199
0.0400959 -0.0407753 0.0824641
0.0389171 0.0410099 0.0829199
0.0175345 0.0578893 0.0800997
0.0174559 0.0579309 0.0800997
-0.0304085 -0.066465 0.068819
0.0288152 -0.0532784 0.0800997
0.00625377 0.063838 0.0772795
-0.0697204 -0.0351349 0.0631786
0.0231748 -0.0576964 0.0788746
-0.069891 -0.0348108 0.0631786
0.0541968 0.00434755 0.0844523
-0.0490754 -0.0576964 0.0659988
-0.0313204 -0.0661569 0.068819
-0.0670009 0.0353695 0.0659988
-0.0191278 0.0647145 0.0744594
-0.0670709 0.0352747 0.0659988
-0.0557901 0.0474795 0.068819
0.0147143 -0.0625692 0.0772795
-0.0416893 0.0568743 0.0716392
-0.0743857 0.0240888 0.0631786
-0.071236 -0.0323148 0.0631786
-0.0501498 -0.0569258 0.0659988
0.0400959 -0.0404221 0.0829199
0.0372757 0.0430367 0.0829199
-0.0163077 -0.0687057 0.0716392
0.000613421 -0.0676334 0.0744594
-0.0566799 0.0466502 0.068819
0.0398346 -0.0407753 0.0829199
-0.0755314 0.0212686 0.0630167
-0.0332287 -0.065486 0.068819
0.0366148 0.04383 0.0829199
-0.0526376 -0.0548762 0.0659988
0.0266647 -0.0548762 0.0800997
-0.05297 -0.0545789 0.0659988
-0.00784712 -0.0689771 0.0729875
-0.0727047 -0.0294946 0.0631786
-0.0727112 -0.0294808 0.0631786
-0.0755251 0.0212686 0.0631786
-0.0755314 0.0212511 0.0631786
0.0128283 -0.0633367 0.0772795
0.00343359 0.064548 0.0772795
0.0429161 -0.0351349 0.0841207
0.025995 -0.0553542 0.0800997
-0.0556215 -0.052056 0.0659988
-0.0586103 0.0445942 0.068819
-0.0557901 -0.0518931 0.0659988
0.0147143 0.0594205 0.0800997
-0.0445094 0.0552383 0.0716392
-0.05297 0.0494704 0.070082
0.0118941 -0.0636821 0.0772795
-0.021948 0.0643728 0.0744594
-0.0447269 0.0551108 0.0716392
-0.0360489 -0.0642987 0.068819
-0.0592935 0.04383 0.068819
-0.073996 -0.0266744 0.0631786
0.0513766 0.0156283 0.0854527
0.0375592 -0.0435955 0.0829199
-0.0191278 -0.0684839 0.0716392
0.0344556 0.046153 0.0829199
-0.0765632 0.0184484 0.0631786
-0.0691326 0.0325493 0.0659988
0.0372757 -0.0439274 0.0829199
0.000613421 0.0649955 0.0772795
-0.00220676 -0.0681946 0.0744594
-0.0584879 -0.0492358 0.0659988
-0.0586103 -0.0491102 0.0659988
0.0513766 -0.0182139 0.085043
0.033938 0.0466502 0.0829199
0.0489929 0.0212686 0.0857401
-0.03817 -0.0633367 0.068819
-0.0751307 -0.0238542 0.0631786
0.0501511 0.0184484 0.0857401
0.0525015 0.00998791 0.0857401
-0.00220676 0.065054 0.0772795
-0.0755314 -0.0226489 0.0631786
0.0541968 -0.00693317 0.0850103
0.0485564 0.0224321 0.0857401
-0.0473296 0.053326 0.0716392
0.0519709 0.0128081 0.0857401
-0.0760443 -0.0210341 0.0631786
-0.0388691 -0.063018 0.068819
0.0512596 0.0156283 0.0857401
0.0513766 0.0152633 0.0857401
0.0479006 0.0240888 0.0857401
0.053166 0.00716773 0.0857401
0.0231748 -0.0572577 0.0800997
0.0541968 0.00152737 0.0853946
-0.00502694 0.065078 0.0772795
-0.0783516 0.0128081 0.0626899
-0.069891 0.0315128 0.0659988
0.0175345 -0.0605165 0.0791596
-0.0247682 0.0638855 0.0744594
-0.0487097 0.0522906 0.0716392
0.00907395 -0.0646916 0.0772795
0.0465244 0.026909 0.0857401
-0.0445094 0.0551108 0.0722673
-0.0614305 0.0416344 0.068819
0.00625377 0.0635713 0.0785097
-0.077522 0.0156283 0.0631786
0.0316354 0.0486751 0.0829199
0.0223926 -0.0576964 0.0800997
-0.0611274 -0.0464157 0.0659988
0.0457363 0.0283509 0.0857401
-0.021948 -0.0680739 0.0716392
0.0372757 -0.0435955 0.083414
-0.0769908 -0.0182139 0.0631786
-0.0614305 -0.0460814 0.0659988
0.0121756 0.0607511 0.0800997
0.0449716 0.0297292 0.0857401
0.0457363 -0.0294946 0.0854189
0.0350461 -0.0464157 0.0829199
0.0537564 0.00434755 0.0857401
0.0306105 0.0494704 0.0829199
0.0118941 0.0608899 0.0800997
-0.0260901 0.0635713 0.0744594
-0.0620646 0.0410099 0.068819
-0.0501498 0.0512179 0.0716392
0.0541968 -0.00411299 0.085555
-0.0416893 -0.0616494 0.068819
0.0344556 -0.0470405 0.0829199
-0.00502694 -0.0686057 0.0744594
0.0540709 0.00152737 0.0857401
0.048557 -0.0238542 0.0857401
0.0485564 -0.0238554 0.0857401
0.0485564 -0.0238542 0.0857412
0.0288152 0.0507297 0.0829199
0.0541968 -0.00129281 0.0856796
0.0203547 -0.0587586 0.0800997
0.0471167 -0.0266744 0.0857401
0.0519177 -0.0153937 0.0857401
0.049906 -0.0210341 0.0857401
-0.00784712 0.0652172 0.0772795
0.0513766 -0.0172074 0.0857401
-0.0783038 0.0128081 0.0631786
0.0527065 -0.0125735 0.0857401
0.0541707 -0.00129281 0.0857401
-0.0275884 0.0631077 0.0744594
0.0510449 -0.0182139 0.0857401
0.0433425 0.0325493 0.0857401
-0.0783516 0.0126173 0.0631786
0.025995 -0.0548762 0.0812789
-0.0778818 -0.0153937 0.0631786
0.0541102 -0.00411299 0.0857401
0.0457363 -0.0292074 0.0857401
-0.0711201 0.0297292 0.0659988
0.0455719 -0.0294946 0.0857401
0.0534249 -0.00975335 0.0857401
0.0429161 0.0332879 0.0857401
-0.0247682 -0.0674991 0.0716392
0.0538947 -0.00693317 0.0857401
0.0118941 -0.0633367 0.0784431
0.0263947 0.0522906 0.0829199
0.0118941 0.0607511 0.0804717
-0.0783516 -0.0133398 0.0631786
-0.0304085 0.0619668 0.0744594
-0.0784869 -0.0125735 0.0631786
-0.0636671 -0.0435955 0.0659988
0.0437604 -0.0323148 0.0857401
0.025995 0.0525287 0.0829199
-0.0332287 0.0607511 0.0742768
-0.0789306 -0.00975335 0.0631786
-0.0789089 0.00998791 0.0631786
0.00625377 -0.065627 0.0772795
-0.0792489 -0.00693317 0.0631786
-0.0794507 -0.00411299 0.0631786
0.0429161 -0.0336043 0.0857401
-0.0642507 -0.0428825 0.0659988
-0.0106673 0.0651008 0.0772795
-0.00784712 -0.0686976 0.0744594
-0.0792844 0.00716773 0.0631786
0.0400959 0.0381897 0.0852319
-0.0795208 0.00434755 0.0631786
0.0321636 -0.0492358 0.0829199
-0.0440015 -0.0605165 0.068819
-0.0524908 0.0494704 0.0716392
-0.0331794 0.0607511 0.0744594
-0.0332287 0.0607294 0.0744594
-0.0134875 0.064688 0.0772795
0.0416752 0.0353695 0.0857401
-0.079667 -0.00129281 0.0631786
0.0175345 -0.0601523 0.0800997
0.0231748 0.0541469 0.0829199
0.0419433 -0.0351349 0.0857401
-0.0797049 0.00152737 0.0631786
0.0316354 -0.0497018 0.0829199
-0.0445094 -0.0602612 0.068819
-0.0658138 -0.0407753 0.0659988
-0.05297 0.0491146 0.0716392
-0.0106673 -0.0685299 0.0744594
-0.0642507 0.0386316 0.068819
0.0167349 -0.0605165 0.0800997
0.0485564 0.0212686 0.0869062
0.00907395 0.0621795 0.0800997
-0.0275884 -0.0668685 0.0716392
0.0212832 0.0551108 0.0829199
-0.0645983 0.0381897 0.068819
0.00433563 -0.0661569 0.0772795
-0.0360489 0.0593704 0.0744594
-0.0670709 -0.0389151 0.0659988
-0.0727112 0.0270033 0.0659988
-0.0727571 0.026909 0.0659988
-0.0676778 -0.0379551 0.0659988
0.0203547 0.0555668 0.0829199
-0.0163077 0.0643587 0.0772795
-0.0304085 -0.0661569 0.0713
0.00343359 -0.066376 0.0772795
0.0429161 0.0325493 0.0865541
0.0400959 0.0378727 0.0857401
0.0344556 -0.0464157 0.0839803
-0.0134875 -0.0683367 0.0744594
0.0400959 -0.0379551 0.0857249
0.0400959 -0.0379411 0.0857401
0.0400866 -0.0379551 0.0857401
0.0398854 0.0381897 0.0857401
0.025995 0.0522906 0.0836306
-0.0727112 0.026909 0.0662887
0.0513766 0.0128081 0.0871988
-0.0473296 -0.058583 0.068819
-0.0694113 -0.0351349 0.0659988
0.0147143 -0.0614526 0.0800997
-0.069891 -0.0342447 0.0659988
-0.0388691 0.0579929 0.0744594
0.0288832 -0.052056 0.0829199
-0.0389975 0.0579309 0.0744594
0.0288152 -0.0521092 0.0829199
-0.0302463 -0.0661569 0.0716392
0.0513766 -0.0153937 0.0868783
-0.0304085 -0.066108 0.0716392
-0.0666423 0.0353695 0.068819
-0.0741177 0.0240888 0.0659988
-0.0709244 -0.0323148 0.0659988
-0.0486592 -0.0576964 0.068819
0.0288152 -0.052056 0.0830459
-0.0557901 0.0468271 0.0716392
0.0175345 0.0570491 0.0829199
-0.0670709 0.0347423 0.068819
-0.0559906 0.0466502 0.0716392
0.00625377 0.063153 0.0800997
-0.0191278 0.0641283 0.0772795
-0.0163077 -0.0681229 0.0744594
0.0316354 -0.0492358 0.0838267
-0.0501498 -0.056588 0.068819
0.000613421 -0.0669808 0.0772795
0.0377827 0.0410099 0.0857401
0.0380796 -0.0407753 0.0857401
-0.0416893 0.0564297 0.0744594
-0.0724475 -0.0294946 0.0659988
0.0372757 0.041657 0.0857401
0.00465032 0.0635713 0.0800997
-0.0522661 -0.0548762 0.068819
-0.0727112 -0.0289557 0.0659988
-0.0332287 -0.0651545 0.0716392
0.0158369 0.0579309 0.0829199
0.0457363 0.026909 0.0875804
0.025995 -0.0541949 0.0829199
-0.05297 -0.054289 0.068819
-0.0753864 0.0212686 0.0659988
0.0372757 -0.0418563 0.0857401
-0.0388691 0.0579309 0.0750129
-0.0586103 0.0439241 0.0716392
-0.0247682 0.0635713 0.0764384
-0.0755314 0.0208999 0.0659988
-0.0586904 0.04383 0.0716392
0.0118941 -0.0627932 0.0800997
-0.0191278 -0.0677637 0.0744594
-0.0438315 0.0551108 0.0744594
0.00343359 -0.0661569 0.0781943
0.00343359 0.0638551 0.0800997
-0.0686378 0.0325493 0.068819
0.0249764 -0.0548762 0.0829199
-0.0737983 -0.0266744 0.0659988
0.0147143 0.0584953 0.0829199
-0.0445094 0.054682 0.0744594
-0.0557901 0.0466502 0.0723141
-0.0554369 -0.052056 0.068819
-0.0557901 -0.051708 0.068819
0.0429161 -0.0323148 0.0873859
0.0354188 0.04383 0.0857401
-0.00220676 -0.0674567 0.0772795
-0.021948 0.0638258 0.0772795
-0.0360489 -0.0640058 0.0716392
-0.0764165 0.0184484 0.0659988
-0.0580999 -0.0492358 0.068819
-0.0614305 0.0410099 0.0712844
-0.0586103 -0.0486506 0.068819
0.010566 -0.0633367 0.0800997
-0.0586103 0.04383 0.0719966
0.0359121 -0.0435955 0.0857401
0.000613421 0.0642811 0.0800997
0.0344556 0.044839 0.0857401
-0.0473296 0.0525876 0.0744594
0.0231748 -0.056038 0.0829199
-0.0477103 0.0522906 0.0744594
-0.021948 -0.0673072 0.0744594
-0.0750456 -0.0238542 0.0659988
-0.037601 -0.0633367 0.0716392
-0.0605843 -0.0464157 0.068819
-0.00220676 0.0643809 0.0800997
-0.0755314 -0.0224927 0.0659988
-0.069891 0.0307576 0.068819
-0.0772663 0.0156283 0.0659988
0.0488594 0.0184484 0.0885602
0.0485564 0.0193201 0.0885602
0.0513766 0.00998791 0.0885134
-0.0613195 0.0410099 0.0716392
-0.0760078 -0.0210341 0.0659988
0.0498951 0.0156283 0.0885602
-0.0237663 0.0635713 0.0772795
-0.0614305 0.0409024 0.0716392
0.00907395 -0.0638815 0.0800997
-0.0614305 -0.0454908 0.068819
0.051356 0.00998791 0.0885602
0.0513766 0.00989287 0.0885602
0.0507337 0.0128081 0.0885602
-0.0388691 -0.062767 0.0716392
0.0325255 0.0466502 0.0857401
0.0485564 -0.0210341 0.0882457
0.0344556 -0.0452891 0.0857401
0.0479074 0.0212686 0.0885602
-0.00502694 0.0644357 0.0800997
0.0457363 -0.0266744 0.088268
0.0316354 0.047409 0.0857401
-0.0705704 0.0297292 0.068819
-0.00502694 -0.0678456 0.0772795
0.0520241 0.00716773 0.0885602
0.0203547 -0.0576964 0.0828116
-0.0501498 0.0504247 0.0744594
-0.0779872 0.0128081 0.0659988
0.0118941 0.0599004 0.0829199
-0.0247682 0.0634023 0.0772795
-0.0769531 -0.0182139 0.0659988
0.0513766 -0.0125735 0.0883902
0.0203547 -0.057653 0.0829199
0.0468053 0.0240888 0.0885602
0.0202659 -0.0576964 0.0829199
-0.0247682 -0.0667879 0.0744594
-0.0783516 0.0111541 0.0659988
0.0333799 -0.0464157 0.0857401
-0.0642507 0.0381897 0.0709479
0.046994 -0.0238542 0.0885602
0.0457363 0.0261981 0.0885602
0.045329 0.026909 0.0885602
-0.0631518 -0.0435955 0.068819
0.00343359 0.0635713 0.081066
0.0504609 -0.0153937 0.0885602
0.0435839 0.0297292 0.0885602
0.0483897 -0.0210341 0.0885602
0.0485564 -0.0206642 0.0885602
0.0457363 -0.0263381 0.0885602
-0.078573 0.00998791 0.0659988
0.049549 -0.0182139 0.0885602
0.0526149 0.00434755 0.0885602
0.051279 -0.0125735 0.0885602
0.0455721 -0.0266744 0.0885602
0.0526447 -0.00411299 0.0885602
0.0513766 -0.012245 0.0885602
0.0372757 0.0410099 0.0869548
0.0429161 0.0308161 0.0885602
-0.0791307 -0.00411299 0.0659988
0.0528287 -0.00129281 0.0885602
0.0289548 0.0494704 0.0857401
-0.0416893 -0.0613763 0.0716392
0.0372757 -0.0407753 0.0870956
0.0288152 0.0495638 0.0857401
-0.0514536 0.0494704 0.0744594
0.0203547 0.0551108 0.0847814
-0.0789724 -0.00693317 0.0659988
0.0528822 0.00152737 0.0885602
-0.00784712 0.0645536 0.0800997
0.0524847 -0.00693317 0.0885602
0.0520498 -0.00975335 0.0885602
-0.0789992 0.00716773 0.0659988
-0.0642507 -0.0422508 0.068819
-0.0778318 -0.0153937 0.0659988
0.0485564 0.0184484 0.0891904
-0.0793512 -0.00129281 0.0659988
0.0418633 0.0325493 0.0885602
-0.0787717 -0.00975335 0.0659988
0.0440858 -0.0294946 0.0885602
0.00625377 -0.064826 0.0800997
-0.0792682 0.00434755 0.0659988
-0.021948 0.0635713 0.0783432
0.0288152 0.0494704 0.0859301
-0.0275884 0.0626835 0.0772795
0.0316354 -0.0480667 0.0857401
-0.0784162 -0.0125735 0.0659988
-0.0783516 -0.0129771 0.0659988
0.0175345 -0.058994 0.0829199
-0.0794168 0.00152737 0.0659988
0.00993951 0.0607511 0.0829199
-0.0653234 -0.0407753 0.068819
-0.00784712 -0.0680612 0.0772795
0.0147143 -0.0605165 0.0824047
0.025995 0.0514218 0.0857401
-0.0473296 0.0522906 0.0754906
0.0429161 -0.031462 0.0885602
-0.0434119 -0.0605165 0.0716392
0.0423809 -0.0323148 0.0885602
-0.0106673 0.0644529 0.0800997
-0.0722803 0.026909 0.068819
-0.05297 0.0483359 0.0744594
-0.0275884 -0.0662036 0.0744594
-0.0304085 0.0615848 0.0772795
0.00907395 0.0610962 0.0829199
0.0246037 0.0522906 0.0857401
-0.0640499 0.0381897 0.0716392
-0.027805 -0.0661569 0.0744594
-0.0670709 -0.0382245 0.068819
0.0303625 -0.0492358 0.0857401
-0.0672442 -0.0379551 0.068819
-0.0642507 0.0379467 0.0716392
-0.0727112 0.0260444 0.068819
-0.0322861 0.0607511 0.0772795
-0.0445094 -0.0599364 0.0716392
-0.0275884 -0.0661569 0.0746212
-0.0134875 0.0641305 0.0800997
-0.0106673 -0.0680067 0.0772795
0.0402388 0.0353695 0.0885602
0.0231748 0.0531525 0.0857401
-0.0332287 0.0603235 0.0772795
0.0404872 -0.0351349 0.0885602
0.0400959 0.0356317 0.0885602
0.0400959 -0.0357043 0.0885602
0.0147143 -0.060309 0.0829199
0.00343359 -0.0656282 0.0800997
-0.069031 -0.0351349 0.068819
0.0142509 -0.0605165 0.0829199
-0.0736628 0.0240888 0.068819
0.0288152 -0.0506239 0.0857401
-0.069891 -0.0335569 0.068819
-0.0360489 0.0589702 0.0772795
0.0400959 0.0353695 0.0888368
-0.0705264 -0.0323148 0.068819
-0.0661361 0.0353695 0.0716392
-0.055116 0.0466502 0.0744594
-0.0473296 -0.0581947 0.0716392
-0.0304085 -0.0655051 0.0744594
-0.0134875 -0.0678825 0.0772795
0.0384805 -0.0379551 0.0885602
-0.0163077 0.0638945 0.0800997
0.0203547 0.0548262 0.0857401
0.00625377 0.0621092 0.0829199
-0.0480775 -0.0576964 0.0716392
0.0316354 0.0466502 0.0871693
-0.0557901 0.0460896 0.0744594
0.0513766 -0.00975335 0.0897018
0.0198394 0.0551108 0.0857401
0.0385126 0.0381897 0.0885602
0.0344556 0.04383 0.0876152
0.00907395 -0.0633367 0.081803
-0.0670709 0.033992 0.0716392
0.0513766 0.00716773 0.0899867
-0.0382534 0.0579309 0.0772795
0.0270344 -0.052056 0.0857401
-0.0720162 -0.0294946 0.068819
0.000911899 -0.0661569 0.0800997
-0.0501498 -0.0561083 0.0716392
0.000613421 -0.0662068 0.0800997
0.00907395 0.0607511 0.0838292
0.0372757 -0.0396082 0.0885602
-0.0388691 0.0576341 0.0772795
0.0429161 0.0297292 0.0899116
-0.0670709 -0.0379551 0.0697936
-0.0727112 -0.0280648 0.068819
0.0147143 0.0579309 0.0850814
-0.0516582 -0.0548762 0.0716392
0.0118941 -0.0616124 0.0829199
0.025995 -0.0527952 0.0857401
-0.0332287 -0.0645646 0.0744594
0.000613421 -0.0661569 0.0802671
-0.0163077 -0.0676908 0.0772795
-0.0783516 -0.0125735 0.0672651
-0.0750642 0.0212686 0.068819
-0.0191278 0.0635808 0.0800997
-0.019185 0.0635713 0.0800997
0.0372757 0.0399301 0.0885602
-0.0733595 -0.0266744 0.068819
-0.0191278 0.0635713 0.0801531
0.0364195 -0.0407753 0.0885602
-0.05297 -0.0537961 0.0716392
-0.0681235 0.0325493 0.0716392
0.0175345 0.0563466 0.0857401
-0.0580444 0.04383 0.0744594
-0.0783516 0.00998791 0.0678041
0.0400959 -0.0351349 0.0894298
0.0485564 -0.0182139 0.0902882
0.000613421 0.0635713 0.0824628
-0.0586103 0.0431628 0.0744594
0.00343359 0.0628994 0.0829199
0.0231748 -0.0548762 0.0854258
-0.0755314 0.0201482 0.068819
-0.0416893 0.0560221 0.0772795
0.0364407 0.0410099 0.0885602
0.0344556 -0.0435955 0.0881352
-0.0191278 -0.0672257 0.0772795
-0.00220676 -0.0666379 0.0800997
-0.0549808 -0.052056 0.0716392
-0.0430931 0.0551108 0.0772795
0.0485564 0.0156283 0.0909273
-0.0761261 0.0184484 0.068819
-0.0360489 -0.0634672 0.0744594
-0.0586103 -0.0480092 0.0716392
-0.0598864 -0.0464157 0.0716392
-0.0557901 -0.0512737 0.0716392
-0.0576169 -0.0492358 0.0716392
0.0513766 -0.00693317 0.0905021
-0.0445094 0.0540839 0.0772795
-0.036377 -0.0633367 0.0744594
0.0457363 -0.0238542 0.0906558
-0.021948 0.0631093 0.0800997
-0.0604643 0.0410099 0.0744594
0.0231748 -0.0547259 0.0857401
-0.0247682 -0.0661569 0.0767718
-0.0746933 -0.0238542 0.068819
-0.0467063 0.0522906 0.0772795
0.0229433 -0.0548762 0.0857401
-0.0473296 0.051773 0.0772795
-0.021948 -0.066628 0.0772795
-0.0614305 -0.0445939 0.0716392
0.000613421 0.0634157 0.0829199
-0.0769372 0.0156283 0.068819
0.0344556 0.0432415 0.0885602
0.0344556 -0.0432668 0.0885602
0.0147143 0.0577456 0.0857401
0.0338681 0.04383 0.0885602
0.034179 -0.0435955 0.0885602
0.0142972 0.0579309 0.0857401
-0.0622845 -0.0435955 0.0716392
-0.0614305 0.0399556 0.0744594
-0.0755314 -0.0217689 0.068819
0.00907395 -0.0629191 0.0829199
-0.000907846 0.0635713 0.0829199
-0.0757946 -0.0210341 0.068819
-0.069891 0.0301214 0.0716392
0.0457363 0.0240888 0.0908493
0.0482841 0.0156283 0.0913804
0.0485564 0.0147717 0.0913804
0.0491234 0.0128081 0.0913804
-0.0776503 0.0128081 0.068819
0.0316354 -0.0464157 0.0881769
-0.0360489 -0.0633367 0.0749667
0.0473403 0.0184484 0.0913804
-0.0388691 -0.0622656 0.0744594
-0.0241495 -0.0661569 0.0772795
-0.00220676 0.0636622 0.0829199
0.0513766 -0.00411299 0.0909876
-0.00502694 -0.0670491 0.0800997
-0.0701551 0.0297292 0.0716392
0.0499025 0.00998791 0.0913804
-0.0247682 -0.0660187 0.0772795
0.0316354 0.0458446 0.0885602
-0.0247682 0.0625837 0.0800997
-0.0501498 0.0495888 0.0772795
0.00798418 -0.0633367 0.0829199
-0.0503205 0.0494704 0.0772795
0.0513766 0.00434755 0.0910834
-0.0782254 0.00998791 0.068819
0.0203547 -0.0564756 0.0857401
0.0231748 0.0522906 0.0876578
-0.0788531 0.00152737 0.068819
0.0306289 0.0466502 0.0885602
0.025995 -0.052056 0.0870159
-0.0642507 -0.0411966 0.0716392
0.0494891 -0.0125735 0.0913804
-0.0783516 0.00918016 0.068819
-0.0788797 -0.00129281 0.068819
0.0464524 0.0212686 0.0913804
-0.0787832 0.00434755 0.068819
-0.0767774 -0.0182139 0.068819
0.0487423 -0.0153937 0.0913804
0.0288152 -0.0492358 0.0878021
-0.0645742 -0.0407753 0.0716392
-0.0785986 0.00716773 0.068819
0.0118941 0.0589346 0.0857401
0.0485564 -0.0160722 0.0913804
-0.00502694 0.0637654 0.0829199
-0.0788293 -0.00411299 0.068819
0.0457363 -0.0229114 0.0913804
0.0466304 -0.0210341 0.0913804
0.0452912 -0.0238542 0.0913804
0.0506865 0.00716773 0.0913804
0.0478528 -0.0182139 0.0913804
-0.0630106 0.0381897 0.0744594
0.0316354 -0.046157 0.0885602
-0.00220676 0.0635713 0.083237
0.0503029 -0.00975335 0.0913804
0.0288152 0.0479977 0.0885602
0.0429161 -0.0294946 0.0909227
0.0313395 -0.0464157 0.0885602
-0.0787175 -0.00693317 0.068819
0.0511852 -0.00411299 0.0913804
0.0508859 -0.00693317 0.0913804
0.0457363 0.0233724 0.0913804
0.0513766 -0.00129281 0.0913694
0.0513708 -0.00129281 0.0913804
0.0513766 -0.00117335 0.0913804
0.0512206 0.00434755 0.0913804
-0.0416893 -0.0609168 0.0744594
0.0514031 0.00152737 0.0913804
0.0513766 0.00232226 0.0913804
0.0454466 0.0240888 0.0913804
-0.0134875 0.0635713 0.082302
0.044003 -0.0266744 0.0913804
0.0485564 -0.0153937 0.0916775
-0.0275884 0.061829 0.0800997
0.00625377 -0.0639159 0.0829199
0.0513766 0.00152737 0.0914266
-0.0275884 -0.065336 0.0772795
0.0429161 0.0284592 0.0913804
-0.0163077 0.0635713 0.0818256
-0.00784712 0.0637647 0.0829199
-0.077655 -0.0153937 0.068819
0.0439193 0.026909 0.0913804
-0.0785646 -0.00975335 0.068819
0.0267089 0.0494704 0.0885602
0.0179872 -0.0576964 0.0857401
0.042089 0.0297292 0.0913804
-0.0501498 0.0494704 0.0777462
0.0175345 -0.0579045 0.0857401
-0.00784712 -0.0673409 0.0800997
0.025995 0.0499546 0.0885602
-0.0425342 -0.0605165 0.0744594
-0.0783516 -0.0119154 0.068819
-0.078258 -0.0125735 0.068819
-0.0666851 -0.0379551 0.0716392
-0.0718757 0.026909 0.0716392
-0.0642507 0.0367569 0.0744594
-0.0670709 -0.0373873 0.0716392
-0.0106673 0.0635881 0.0829199
0.0402927 0.0325493 0.0913804
0.00907395 0.0599984 0.0857401
-0.0108292 0.0635713 0.0829199
-0.0304085 0.0607873 0.0800997
-0.0304961 0.0607511 0.0800997
0.0429161 -0.0290617 0.0913804
0.0485564 0.0128081 0.0922824
-0.0106673 0.0635713 0.0829679
0.0400959 0.0328797 0.0913804
-0.05297 0.0475546 0.0772795
0.0288152 -0.0486896 0.0885602
0.0427045 -0.0294946 0.0913804
-0.0304085 0.0607511 0.0801933
-0.0727112 0.0251667 0.0716392
0.0372757 -0.0379551 0.0906787
-0.0684758 -0.0351349 0.0716392
0.0282096 -0.0492358 0.0885602
-0.00502694 0.0635713 0.0836456
-0.0106673 -0.0673461 0.0800997
0.0372757 0.0381897 0.0906498
-0.0445094 -0.0595087 0.0744594
-0.0332287 0.0595643 0.0800997
-0.0304085 -0.0645867 0.0772795
0.0231748 0.0518509 0.0885602
-0.0731885 0.0240888 0.0716392
0.0147143 -0.0591837 0.0857401
-0.00220676 -0.0661569 0.081787
-0.069891 -0.0324811 0.0716392
-0.0653986 0.0353695 0.0744594
-0.0699709 -0.0323148 0.0716392
-0.0134875 0.063366 0.0829199
-0.0642507 -0.0407753 0.0726829
0.0400959 0.0325493 0.0917035
0.00343359 -0.0647394 0.0829199
-0.0541595 0.0466502 0.0772795
0.0410823 -0.0323148 0.0913804
0.0224768 0.0522906 0.0885602
-0.00784712 0.0635713 0.0835532
0.00666945 0.0607511 0.0857401
0.0175345 -0.0576964 0.0863208
0.0386168 0.0353695 0.0913804
0.00625377 0.060867 0.0857401
0.0118941 -0.0605165 0.0853928
0.0400959 -0.0337928 0.0913804
-0.0714041 -0.0294946 0.0716392
-0.069891 -0.0323148 0.0719564
-0.021948 -0.0661569 0.079071
0.0457363 0.0212686 0.0925774
0.0391138 -0.0351349 0.0913804
-0.0134875 -0.0672191 0.0800997
0.0457363 -0.0210341 0.0926408
-0.0783516 0.00716773 0.0702195
-0.0473296 -0.057779 0.0744594
-0.0360489 0.0583804 0.0800997
-0.047451 -0.0576964 0.0744594
0.00625377 0.0607511 0.0860013
0.025995 -0.0510714 0.0885602
0.025995 0.0494704 0.0894748
-0.0332287 -0.0636921 0.0772795
0.0203547 0.053636 0.0885602
-0.0755314 -0.0210341 0.0706422
-0.0557901 0.0453112 0.0772795
0.0118941 -0.060375 0.0857401
0.0372757 -0.0374328 0.0913804
-0.074549 0.0212686 0.0716392
-0.0501498 -0.0555245 0.0744594
-0.0727112 -0.0268938 0.0716392
-0.0163077 0.0632631 0.0829199
-0.0670709 0.0331926 0.0744594
-0.0728131 -0.0266744 0.0716392
0.0372757 0.0375012 0.0913804
0.011546 -0.0605165 0.0857401
-0.0509061 -0.0548762 0.0744594
0.000613421 -0.0653524 0.0829199
0.0368441 -0.0379551 0.0913804
0.0485564 -0.0125735 0.0929243
-0.0371638 0.0579309 0.0800997
-0.0342207 -0.0633367 0.0772795
0.00343359 0.0616223 0.0857401
0.0247003 -0.052056 0.0885602
-0.069891 0.0297292 0.0734478
0.0368039 0.0381897 0.0913804
-0.0675562 0.0325493 0.0744594
-0.0163077 -0.0669872 0.0800997
-0.05297 -0.0530975 0.0744594
-0.0614305 -0.0435955 0.0741554
-0.0573142 0.04383 0.0772795
-0.0473296 -0.0576964 0.0749102
0.0429161 0.026909 0.0928454
-0.0783516 0.00434755 0.0709263
-0.0541951 -0.052056 0.0744594
-0.0591044 -0.0464157 0.0744594
-0.0360489 -0.062626 0.0772795
-0.0755314 0.0188824 0.0716392
-0.0388691 0.0571768 0.0800997
-0.0741269 -0.0238542 0.0716392
0.00625377 -0.0633367 0.0845338
-0.0727112 -0.0266744 0.0721072
-0.0191278 0.0629013 0.0829199
0.0178385 0.0551108 0.0885602
-0.0756745 0.0184484 0.0716392
-0.0191278 -0.0664752 0.0800997
-0.0586103 -0.0471345 0.0744594
-0.0586103 0.0423669 0.0772795
0.0175345 0.0552702 0.0885602
-0.0613266 -0.0435955 0.0744594
0.0485564 0.00998791 0.0935397
-0.0614305 -0.04347 0.0744594
0.034572 -0.0407753 0.0913804
-0.0783516 0.00152737 0.0711954
0.0231748 -0.0532151 0.0885602
0.0344556 -0.0409239 0.0913804
-0.00220676 -0.0658239 0.0829199
-0.0205179 -0.0661569 0.0800997
-0.0557901 -0.0505964 0.0744594
-0.0570291 -0.0492358 0.0744594
-0.0597325 0.0410099 0.0772795
-0.021948 0.0622042 0.0829199
-0.0764914 0.0156283 0.0716392
0.00907395 -0.0616017 0.0857401
0.0346192 0.0410099 0.0913804
-0.021948 -0.0658293 0.0800997
0.0344556 -0.0407753 0.0915532
0.000613421 0.0622905 0.0857401
-0.0416893 -0.0605165 0.0763709
0.0344556 0.0412028 0.0913804
-0.0416893 0.055597 0.0800997
0.0175345 0.0551108 0.0889022
-0.0753243 -0.0210341 0.0716392
-0.042417 0.0551108 0.0800997
-0.0445094 0.0534667 0.0800997
-0.0755314 -0.0204624 0.0716392
-0.0332287 -0.0633367 0.0783625
-0.0459099 0.0522906 0.0800997
-0.0772202 0.0128081 0.0716392
-0.0782659 0.00152737 0.0716392
-0.0388691 -0.0614629 0.0772795
-0.0636745 -0.0407753 0.0744594
0.0457363 0.0184484 0.0939637
-0.0614305 0.0389582 0.0772795
0.0344556 0.0410099 0.0916295
-0.0781964 0.00434755 0.0716392
-0.0247682 0.0614574 0.0829199
-0.0473296 0.0510942 0.0800997
-0.00427457 -0.0661569 0.0829199
-0.0783516 -0.000709407 0.0716392
0.0472638 0.0128081 0.0942006
0.0147143 0.0566902 0.0885602
0.0464347 0.0156283 0.0942006
-0.0247682 -0.0651555 0.0800997
-0.0780494 0.00716773 0.0716392
-0.0642507 -0.0400649 0.0744594
-0.0777585 0.00998791 0.0716392
-0.0783902 -0.00129281 0.0716392
-0.0275884 0.0607511 0.0826374
-0.0620621 0.0381897 0.0772795
0.0288152 0.0466502 0.0909739
-0.0696831 0.0297292 0.0744594
-0.0755314 0.0184484 0.0723783
0.0429161 -0.0266744 0.0934495
0.0321823 -0.0435955 0.0913804
-0.0763089 -0.0182139 0.0716392
0.0457363 0.0179546 0.0942006
0.048112 0.00998791 0.0942006
0.0208597 -0.0548762 0.0885602
0.0319248 0.04383 0.0913804
0.0455911 0.0184484 0.0942006
-0.00502694 -0.0662756 0.0829199
-0.00220676 0.0627596 0.0857401
-0.069891 0.0294334 0.0744594
0.0316354 0.0440964 0.0913804
-0.0493571 0.0494704 0.0800997
0.0316354 -0.0441531 0.0913804
-0.0191278 -0.0661569 0.0809936
0.0457363 -0.0183741 0.0942006
0.045805 -0.0182139 0.0942006
0.0203547 -0.0551998 0.0885602
0.0446046 -0.0210341 0.0942006
0.0485564 0.00862131 0.0942006
-0.027196 0.0607511 0.0829199
-0.0783516 -0.00129281 0.071876
0.0118941 0.0579309 0.0883827
-0.0275884 0.0606311 0.0829199
0.0457363 -0.0182139 0.0942946
0.0469538 -0.0153937 0.0942006
-0.0785493 -0.00411299 0.0716392
-0.0501498 0.0488931 0.0800997
-0.0658806 -0.0379551 0.0744594
0.04789 -0.0125735 0.0942006
-0.0275884 -0.0644163 0.0800997
0.0447321 0.0212686 0.0942006
-0.0411507 -0.0605165 0.0772795
0.0490227 0.00716773 0.0942006
0.0118941 0.0578576 0.0885602
0.0116812 0.0579309 0.0885602
0.00625377 -0.0628183 0.0857401
0.0288152 0.0464322 0.0913804
0.0435197 -0.0238542 0.0942006
-0.00502694 0.0629428 0.0857401
0.0285165 0.0466502 0.0913804
0.0485564 -0.0104477 0.0942006
-0.0360489 0.0579309 0.0817647
-0.0772821 -0.0153937 0.0716392
-0.00502694 -0.0661569 0.0833064
0.0400959 -0.0323148 0.0932282
-0.0416893 -0.0602776 0.0772795
0.0418274 0.026909 0.0942006
0.0429161 0.0251444 0.0942006
0.0435251 0.0240888 0.0942006
0.0290519 -0.0464157 0.0913804
0.0316354 0.04383 0.0918024
0.0487922 -0.00975335 0.0942006
-0.0785477 -0.00693317 0.0716392
-0.0670709 -0.0361614 0.0744594
0.0497495 0.00152737 0.0942006
0.0288152 -0.046613 0.0913804
-0.0676427 -0.0351349 0.0744594
0.0496181 0.00434755 0.0942006
-0.0586103 -0.0464157 0.07595
0.0498333 -0.00129281 0.0942006
-0.0304085 0.0596587 0.0829199
0.0400959 0.0297292 0.0941748
0.0372757 0.0353695 0.0933843
0.0400959 0.029697 0.0942006
0.040075 0.0297292 0.0942006
-0.00784712 0.0628567 0.0857401
0.0429161 -0.025545 0.0942006
-0.0642507 0.035614 0.0772795
-0.0691415 -0.0323148 0.0744594
-0.00784712 -0.0665829 0.0829199
-0.0670709 0.0325493 0.076241
0.025995 0.0484301 0.0913804
-0.0784012 -0.00975335 0.0716392
0.00907395 0.0587328 0.0885602
-0.0714629 0.026909 0.0744594
0.0175345 -0.0567965 0.0885602
-0.0106673 0.0625512 0.0857401
0.00343359 0.0607511 0.0876094
-0.0644581 0.0353695 0.0772795
-0.0783516 -0.0103641 0.0716392
-0.069891 -0.0308317 0.0744594
-0.0780393 -0.0125735 0.0716392
0.0498995 -0.00411299 0.0942006
0.0495904 -0.00693317 0.0942006
0.0203547 -0.0548762 0.0892087
0.00475558 -0.0633367 0.0857401
0.0288152 -0.0464157 0.091656
0.0316354 -0.0435955 0.0921207
-0.0304085 -0.0636498 0.0800997
0.0425141 -0.0266744 0.0942006
0.0244326 0.0494704 0.0913804
-0.0705874 -0.0294946 0.0744594
0.0382803 0.0325493 0.0942006
0.025995 -0.0492358 0.0911359
-0.0134875 0.0622386 0.0857401
-0.0332287 0.0585473 0.0829199
-0.05297 0.0467747 0.0800997
-0.0445094 -0.0587972 0.0772795
0.0457363 0.0156283 0.0952651
0.0155534 -0.0576964 0.0885602
-0.0531282 0.0466502 0.0800997
0.0231748 0.0502758 0.0913804
0.0485564 0.00716773 0.0949055
-0.0315154 -0.0633367 0.0800997
0.00625377 0.0594883 0.0885602
-0.0727112 0.0242902 0.0744594
0.0231748 -0.052056 0.0904184
-0.0106673 -0.0665832 0.0829199
-0.0727947 0.0240888 0.0744594
0.00343359 -0.0637247 0.0857401
0.0147143 -0.0580377 0.0885602
0.025995 -0.049052 0.0913804
0.0203547 0.0522906 0.0910277
0.0485564 -0.00975335 0.0947733
-0.0642507 0.0353695 0.0778388
0.0429161 0.0240888 0.0949581
0.025779 -0.0492358 0.0913804
-0.0163077 -0.0661569 0.0824519
0.0372757 0.0343286 0.0942006
0.041279 -0.0294946 0.0942006
-0.0501498 -0.0548762 0.0769506
-0.0463473 -0.0576964 0.0772795
-0.0783516 -0.00975335 0.0722396
-0.0349432 0.0579309 0.0829199
-0.0247682 0.0607511 0.0845557
-0.0721061 -0.0266744 0.0744594
-0.0332287 -0.0627559 0.0800997
-0.0134875 -0.0663651 0.0829199
-0.05297 0.0466502 0.080501
-0.0473296 -0.0570365 0.0772795
0.0429161 -0.0238542 0.0951659
0.0400959 -0.0314394 0.0942006
0.036691 0.0353695 0.0942006
-0.0163077 0.0620846 0.0857401
-0.0740111 0.0212686 0.0744594
-0.0727112 -0.0253706 0.0744594
0.0394766 -0.0323148 0.0942006
0.0203547 0.0520854 0.0913804
-0.0666909 0.0325493 0.0772795
-0.0151792 -0.0661569 0.0829199
0.0200238 0.0522906 0.0913804
0.0118941 -0.0591808 0.0885602
-0.0500341 -0.0548762 0.0772795
-0.0501498 -0.054777 0.0772795
-0.0727112 0.0240888 0.0749788
-0.0360489 0.057567 0.0829199
0.00343359 0.0602901 0.0885602
-0.0733527 -0.0238542 0.0744594
-0.0163077 -0.0659752 0.0829199
0.000613421 -0.0643676 0.0857401
-0.0783516 -0.00411299 0.0730705
-0.0670709 0.0320136 0.0772795
-0.0557901 0.0443542 0.0800997
-0.0586103 -0.0457053 0.0772795
0.0372757 -0.0351349 0.0942001
0.0372757 -0.0351345 0.0942006
0.0372753 -0.0351349 0.0942006
-0.05297 -0.0521984 0.0772795
-0.0581128 -0.0464157 0.0772795
-0.0531209 -0.052056 0.0772795
0.00907395 -0.0605165 0.0881098
-0.0602968 -0.0435955 0.0772795
-0.0360489 -0.0615878 0.0800997
-0.0563318 0.04383 0.0800997
-0.0614305 0.0381897 0.0792541
-0.0304085 -0.0633367 0.0811065
-0.0191278 -0.0653716 0.0829199
0.0147143 -0.0576964 0.0893178
-0.0557901 -0.0493901 0.0772795
-0.0559278 -0.0492358 0.0772795
-0.0751063 0.0184484 0.0744594
-0.0191278 0.0617408 0.0857401
0.0231748 -0.0513985 0.0913804
0.00343359 -0.0633367 0.0866496
-0.0614305 -0.0422785 0.0772795
0.0349186 -0.0379551 0.0942006
-0.00784712 -0.0661569 0.0842419
0.00175501 0.0607511 0.0885602
-0.0755314 0.0170174 0.0744594
-0.0134875 -0.0661569 0.0835596
-0.0745306 -0.0210341 0.0744594
-0.0670709 -0.0351349 0.0762156
0.0344556 -0.0385136 0.0942006
-0.05297 -0.052056 0.0776518
-0.0416893 0.0551108 0.0822968
-0.0758975 0.0156283 0.0744594
-0.021948 -0.0647474 0.0829199
0.0175345 0.053789 0.0913804
0.0349142 0.0381897 0.0942006
-0.0557901 -0.0492358 0.0775609
0.0372757 0.0325493 0.0954235
-0.021948 0.0610204 0.0857401
-0.00220676 -0.0648188 0.0857401
0.0223528 -0.052056 0.0913804
-0.0586103 0.0413489 0.0800997
0.00907395 -0.0603213 0.0885602
0.0485564 0.00434755 0.095855
-0.0228663 0.0607511 0.0857401
-0.0588918 0.0410099 0.0800997
0.0457363 -0.0153937 0.0961189
-0.0627138 -0.0407753 0.0772795
0.000613421 0.0610324 0.0885602
-0.0772969 0.00716773 0.0744594
-0.0765664 0.0128081 0.0744594
-0.0783516 -0.00693317 0.0733753
0.0344556 0.0388637 0.0942006
-0.0775186 0.00434755 0.0744594
0.0231748 0.0494704 0.0926824
0.0457363 0.0128081 0.0965329
-0.0388691 0.0564695 0.0829199
-0.0687049 0.0297292 0.0772795
-0.0770321 0.00998791 0.0744594
0.00856079 -0.0605165 0.0885602
0.00907395 0.0579309 0.0902246
-0.0388691 -0.0605165 0.0800576
-0.0777009 0.00152737 0.0744594
-0.0388265 -0.0605165 0.0800997
-0.0388691 -0.0605013 0.0800997
-0.0755314 -0.018387 0.0744594
-0.0247682 0.0602052 0.0857401
-0.0755925 -0.0182139 0.0744594
-0.0106673 -0.0661569 0.0843028
0.0325908 -0.0407753 0.0942006
-0.0332287 0.0579309 0.0845209
0.0400959 0.026909 0.0963195
-0.0778723 -0.00129281 0.0744594
-0.0247682 -0.0642083 0.0829199
-0.0611369 0.0381897 0.0800997
0.0149955 0.0551108 0.0913804
-0.0755314 -0.0182139 0.074677
-0.0642507 -0.0389215 0.0772795
0.0485564 0.00152737 0.0962058
0.0429161 -0.0210341 0.0966012
0.0147143 0.0552414 0.0913804
-0.021948 0.0607511 0.0862948
-0.0614305 0.0378122 0.0800997
0.0344556 -0.0379551 0.094846
-0.0413886 0.0551108 0.0829199
-0.0416893 0.0549218 0.0829199
0.0316354 -0.0419004 0.0942006
0.0327937 0.0410099 0.0942006
-0.00502694 -0.0652338 0.0857401
0.0203547 -0.0535517 0.0913804
-0.064977 -0.0379551 0.0772795
-0.0275884 0.0593997 0.0857401
0.0454401 0.0128081 0.0970208
-0.069891 0.0280235 0.0772795
0.0457363 0.0117229 0.0970208
-0.00220676 0.0616107 0.0885602
-0.069891 -0.0294946 0.0767433
0.000613421 0.0607511 0.0891915
-0.0445094 0.0528149 0.0829199
0.0462007 0.00998791 0.0970208
0.0446131 0.0156283 0.0970208
0.0147143 0.0551108 0.091619
-0.0451527 0.0522906 0.0829199
0.00625377 -0.0613778 0.0885602
0.0344556 0.0381897 0.0948946
-0.0766199 -0.0153937 0.0744594
-0.0586103 0.0410099 0.0808683
0.0316354 0.0422353 0.0942006
-0.0473296 0.0504266 0.0829199
-0.0780876 -0.00411299 0.0744594
-0.0670709 -0.0344886 0.0772795
-0.0557901 0.04383 0.0814085
-0.0667447 -0.0351349 0.0772795
0.0437969 -0.0182139 0.0970208
-0.0681785 -0.0323148 0.0772795
0.0429161 -0.0202561 0.0970208
-0.0416893 -0.0592774 0.0800997
0.0429161 0.0212686 0.0968226
0.0437689 0.0184484 0.0970208
-0.048439 0.0494704 0.0829199
0.0426271 -0.0210341 0.0970208
0.0299888 -0.0435955 0.0942006
-0.0275884 -0.0635566 0.0829199
0.0470443 0.00716773 0.0970208
0.0118941 0.056447 0.0913804
-0.0705939 0.026909 0.0772795
0.0485564 -0.00129281 0.0965568
-0.0633789 0.0353695 0.0800997
0.0298627 0.04383 0.0942006
0.0451373 -0.0153937 0.0970208
0.0429161 0.0209033 0.0970208
-0.0283885 -0.0633367 0.0829199
0.0288152 -0.0446026 0.0942006
0.0400959 0.0259381 0.0970208
0.0427669 0.0212686 0.0970208
0.0412492 0.0240888 0.0970208
0.0182619 -0.0548762 0.0913804
-0.0304085 0.0584789 0.0857401
0.0288152 0.0446536 0.0942006
-0.00502694 0.0618857 0.0885602
0.0395151 0.026909 0.0970208
-0.0501498 0.0480471 0.0829199
-0.0781569 -0.00693317 0.0744594
0.0400959 -0.0294946 0.0960472
0.0457363 -0.014079 0.0970208
-0.0697269 -0.0294946 0.0772795
-0.069891 -0.0291867 0.0772795
-0.0775022 -0.0125735 0.0744594
0.0477216 0.00434755 0.0970208
-0.00784712 -0.0655687 0.0857401
0.0175345 -0.0552686 0.0913804
0.025995 0.0466502 0.094154
-0.0642507 0.0342489 0.0800997
-0.0727112 -0.0238542 0.0765684
0.00907395 0.0573241 0.0913804
0.03772 0.0297292 0.0970208
-0.077983 -0.00975335 0.0744594
0.0417147 -0.0238542 0.0970208
0.025995 0.046617 0.0942006
0.0463852 -0.0125735 0.0970208
-0.0318659 0.0579309 0.0857401
0.0485564 -0.00693317 0.0965257
0.0259427 0.0466502 0.0942006
-0.00784712 0.0617961 0.0885602
0.0480444 0.00152737 0.0970208
0.0372757 0.0303979 0.0970208
-0.0445094 -0.0577033 0.0800997
-0.0445212 -0.0576964 0.0800997
-0.0445094 -0.0576964 0.0801166
-0.0106673 0.0614364 0.0885602
0.0265482 -0.0464157 0.0942006
-0.0304085 -0.0627192 0.0829199
-0.0755314 0.0156283 0.076101
-0.0518659 0.0466502 0.0829199
-0.0191278 0.0607511 0.0876722
0.00343359 -0.0623645 0.0885602
0.0457363 0.00998791 0.0977465
0.025995 -0.0468676 0.0942006
0.0482974 -0.00129281 0.0970208
-0.0134875 0.061013 0.0885602
0.00651772 0.0579309 0.0913804
-0.0332287 0.057397 0.0857401
-0.0711871 -0.0266744 0.0772795
0.00625377 0.0579934 0.0913804
0.0231748 0.0484207 0.0942006
-0.072138 0.0240888 0.0772795
0.047492 -0.00975335 0.0970208
-0.0655019 0.0325493 0.0800997
0.000613421 -0.0633367 0.0880585
0.0359709 0.0325493 0.0970208
0.0485564 -0.00411299 0.0969149
0.00625377 0.0579309 0.0915038
-0.0275884 -0.0633367 0.0836446
0.0147143 -0.0565994 0.0913804
-0.05297 0.0457345 0.0829199
-0.0106673 -0.0656372 0.0857401
-0.0473296 -0.0558528 0.0800997
-0.0332287 -0.0616221 0.0829199
-0.0163077 0.0607511 0.0884455
-0.0727112 0.0228276 0.0772795
-0.0157354 0.0607511 0.0885602
0.0175345 -0.0548762 0.0919919
0.048494 -0.00411299 0.0970208
0.0215495 0.0494704 0.0942006
0.0316354 -0.0407753 0.0955172
0.0407766 -0.0266744 0.0970208
0.0482745 -0.00693317 0.0970208
-0.0163077 0.0606958 0.0885602
0.0372757 0.0297292 0.0975788
-0.0486584 -0.0548762 0.0800997
-0.0724859 -0.0238542 0.0772795
-0.0727112 -0.0232942 0.0772795
-0.0134875 -0.0653538 0.0857401
-0.0733626 0.0212686 0.0772795
-0.0501498 -0.0536388 0.0800997
-0.0360489 -0.0605165 0.0827523
-0.0518579 -0.052056 0.0800997
0.0203547 0.0502723 0.0942006
-0.05297 -0.0509285 0.0800997
-0.0163077 -0.0647952 0.0857401
-0.0545524 -0.0492358 0.0800997
-0.0569773 -0.0464157 0.0800997
0.0400959 -0.0282215 0.0970208
-0.0557901 -0.0478488 0.0800997
-0.0586103 -0.044386 0.0800997
0.0119364 -0.0576964 0.0913804
0.00343359 0.0588185 0.0913804
0.000613421 -0.0630764 0.0885602
0.025995 -0.0464157 0.094828
0.0118941 -0.0577124 0.0913804
-0.0134875 0.0607511 0.0891709
-0.0358712 -0.0605165 0.0829199
0.0118941 -0.0576964 0.091408
-0.069891 0.026909 0.0788559
-0.059252 -0.0435955 0.0800997
0.0429161 0.0184484 0.0982118
-0.0360489 0.0563685 0.0857401
-0.0360489 -0.0604442 0.0829199
