# .PCD v0.7 - Point Cloud Data file format
VERSION 0.7
FIELDS x y z
SIZE 4 4 4
TYPE F F F
COUNT 1 1 1
WIDTH 246
HEIGHT 1
VIEWPOINT 0 0 0 1 0 0 0
POINTS 246
DATA ascii
-0.021548107 -0.012565777 0.0097873341
-0.014377976 -0.013869437 0.0086822528
-0.0052523538 -0.012565777 0.0080442391
0.0045250971 -0.012565777 0.0091412887
-0.025622047 -0.0052326862 0.0091375802
-0.015644494 -0.0067037307 0.00754727
-0.0052523538 -0.0077947751 0.007413635
0.0041903341 -0.0051463544 0.0077363523
0.014302552 -0.0044178981 0.0094211046
-0.03132556 0.0053595528 0.0097306091
-0.025178209 0.0031583607 0.0078496877
-0.015029805 0.0037299786 0.0067448141
-0.0052523538 0.0037299786 0.0067860195
0.005911395 0.0037299786 0.0073461644
0.015388936 0.0026435952 0.0089512486
-0.03132556 0.010248281 0.0097597502
-0.025783457 0.014366972 0.0081439782
-0.015029805 0.01350743 0.006713151
-0.0052523538 0.01350743 0.0065676216
0.0061905151 0.013630037 0.0074321958
0.014302552 0.01350743 0.0088496339
-0.024807259 0.022470094 0.0095357504
-0.015197746 0.024574161 0.008094064
-0.0052523538 0.023946775 0.0074727382
0.0036289748 0.023930807 0.008430589
0.014302552 0.02002573 0.0098630674
-0.021194106 -0.022157056 0.017758384
-0.014351666 -0.023359921 0.015468786
-0.0054851505 -0.024061227 0.014410542
0.004068695 -0.023582676 0.015799332
0.01071777 -0.022156637 0.017684545
-0.031585306 -0.012899259 0.017072236
-0.024981102 -0.01598344 0.01397636
-0.015991313 -0.018415207 0.010826139
-0.0044375658 -0.019284047 0.010384466
0.0035232203 -0.019084077 0.01166765
0.014930926 -0.016259931 0.015215692
0.020765414 -0.012490994 0.01749118
-0.033888903 -0.0054460098 0.014867452
-0.028191134 -0.0077824607 0.01084286
0.016702278 -0.0068165842 0.010953686
0.023092017 -0.0056626103 0.015735665
-0.035753425 0.0035262811 0.013954711
0.024203647 0.0039319466 0.014024905
-0.035110246 0.014125603 0.014046702
0.024960319 0.013725758 0.014920894
-0.032930594 0.023109743 0.015770653
-0.026079608 0.026855109 0.012541659
-0.018288955 0.029803187 0.010300659
0.006881482 0.029742196 0.010723572
0.015048802 0.026258215 0.012782857
0.022246653 0.022949085 0.016008077
-0.023501119 0.033136036 0.016293673
-0.014779645 0.035231441 0.01420885
-0.0049897386 0.036277167 0.013910094
0.004474462 0.035349566 0.014685013
0.013093206 0.033303052 0.016953126
-0.0052523538 -0.030032294 0.027196366
-0.024230963 -0.023184912 0.024526628
-0.015405861 -0.027312215 0.024186656
-0.0052121612 -0.028891657 0.023468815
0.0050056223 -0.02743871 0.024110775
0.013819925 -0.023287494 0.024409914
-0.033450276 -0.015014036 0.024556225
-0.028498745 -0.019088434 0.021484371
0.017802175 -0.018998295 0.021639366
0.022313293 -0.014930872 0.024380965
-0.040741533 -0.0035084859 0.026473304
-0.037889369 -0.0072370875 0.02278698
0.027358299 -0.0063237008 0.024259578
0.030598305 -1.4651567e-05 0.027196366
-0.041258439 0.0038277498 0.024105188
-0.039690036 0.00047082826 0.020678062
0.029488297 0.0029151905 0.02149285
0.030811135 0.0041886074 0.025322758
-0.041079257 0.013360257 0.025067106
-0.038791433 0.016588544 0.020678062
0.02921723 0.014322218 0.02149285
0.030632785 0.013007297 0.025943486
-0.035656113 0.02557016 0.023818368
0.025271181 0.025364175 0.023663722
-0.031284053 0.032668725 0.026493233
-0.025275605 0.036188468 0.024202205
-0.017057508 0.039490957 0.021926735
0.0063900971 0.039404228 0.022058168
0.01475557 0.036164816 0.024232851
0.020787859 0.032694191 0.026501045
-0.013521363 0.042007014 0.026059248
-0.0052523538 0.042353317 0.024363577
0.0031954704 0.042012025 0.025877802
-0.011770654 -0.030403312 0.033714667
-0.0052523538 -0.030792912 0.033714667
0.0012659468 -0.030345535 0.033714667
-0.03132556 -0.02023498 0.035344243
-0.025488097 -0.024355782 0.03355246
-0.016965434 -0.02903668 0.033714667
0.0063996892 -0.029009422 0.033714667
0.015099438 -0.024439469 0.033490602
0.020820856 -0.020239398 0.035344243
-0.035463713 -0.015416573 0.033535909
0.024221985 -0.015436236 0.033635668
-0.041542441 -0.0056589697 0.033805467
-0.0396033 -0.0093066245 0.032085091
0.02857627 -0.0079814326 0.033249076
0.030693864 -0.0030824065 0.033371236
-0.043563593 0.0037299779 0.033714667
0.032360036 0.0037299779 0.033714667
-0.042820044 0.014049569 0.033388749
0.031822372 0.014483138 0.033418387
-0.041027687 0.020768642 0.034434088
-0.037667692 0.026895903 0.033284955
0.027346224 0.026029384 0.033525474
0.030662721 0.020232579 0.035435386
-0.032900266 0.032898359 0.033714667
-0.026318483 0.038290273 0.034142226
0.015952824 0.038001832 0.033714674
0.022285158 0.032691531 0.033714667
-0.021548107 0.041067712 0.033714667
-0.015622465 0.043323871 0.033714663
-0.0052523538 0.044801809 0.033714667
0.0051562916 0.043323085 0.033714663
0.0110434 0.041007943 0.033714667
-0.011770654 -0.030314857 0.041862544
-0.0059041842 -0.030585213 0.041536629
0.0012659468 -0.030063711 0.040232968
-0.03132556 -0.020255871 0.041862544
-0.025220262 -0.024374237 0.043920472
-0.015727518 -0.02891086 0.044505171
-0.004786761 -0.029388623 0.047570702
0.0046196757 -0.028725363 0.044190891
0.015066746 -0.023222519 0.045026548
0.020820856 -0.020225497 0.040232968
-0.035184622 -0.015189109 0.04591348
0.019222101 -0.019107137 0.04759739
0.023273431 -0.015621435 0.044494446
-0.041513812 -0.0042940602 0.04534341
-0.039421249 -0.0080528082 0.04721551
0.02810446 -0.0088119088 0.045213573
0.030683458 -0.0041077919 0.043752994
-0.043306235 0.0031374053 0.044279344
0.032245647 0.0037299779 0.043492116
-0.041990582 0.014490753 0.046107434
0.031711672 0.014709132 0.044221472
-0.040905416 0.020640828 0.042554308
-0.037410531 0.026359443 0.044894908
0.026894338 0.026290908 0.044386894
0.030652937 0.020209044 0.041730847
-0.032407787 0.032999046 0.043563411
-0.024914438 0.038184162 0.045368403
-0.019918531 0.039777189 0.049011528
0.0096002892 0.039645925 0.048584104
0.014775443 0.037935518 0.044238187
0.021796996 0.03282528 0.043461282
-0.021548107 0.040675551 0.041862544
-0.014768347 0.042510264 0.046078879
-0.0045829606 0.043378539 0.046462998
0.0045445655 0.041851524 0.045474306
0.0110434 0.040658601 0.041862544
-0.02319576 -0.022360431 0.053523079
-0.015486534 -0.024951452 0.055304479
-0.0046069082 -0.025788333 0.056188531
0.0052219834 -0.024040738 0.054945659
0.012764304 -0.021571685 0.052481692
-0.033393644 -0.013586081 0.053787239
-0.027114872 -0.017040253 0.057036299
0.0089102238 -0.019179575 0.059729427
0.016470121 -0.016241401 0.056037161
0.021948529 -0.012380976 0.052592214
-0.040963724 -0.0020816189 0.051119018
-0.037166107 -0.0057453946 0.055735197
0.019874297 -0.0093066245 0.059787873
0.025442457 -0.0054066172 0.055085324
0.030479256 -0.0018926139 0.050126057
-0.041225743 0.0046497253 0.052598473
-0.038599137 0.004500418 0.057931304
0.027841786 0.004230591 0.056875922
0.030696888 0.0048645958 0.051176395
-0.040754706 0.013180568 0.051793598
-0.038466617 0.015440254 0.056767449
0.027778074 0.015159154 0.056237474
0.030612862 0.012802943 0.051113062
-0.034667511 0.024705928 0.054566879
-0.028959064 0.028901791 0.05830669
0.017750487 0.028182773 0.058482699
0.024115773 0.024411298 0.054472264
-0.031279109 0.031345341 0.051216174
-0.025223127 0.034419727 0.054583549
-0.016485864 0.03821674 0.056617647
-0.0038206014 0.038787976 0.058048949
0.0059915893 0.037339013 0.056119755
0.014483931 0.03381497 0.054117441
0.020851193 0.031276159 0.050471604
-0.013102429 0.041224759 0.052467253
-0.0047549531 0.041398078 0.052820619
0.002986653 0.040819105 0.051247928
-0.013872355 -0.021369927 0.06188637
-0.0049155066 -0.021489931 0.061786227
0.0015042005 -0.020645142 0.061154366
-0.024129739 -0.013685945 0.062884092
-0.015310965 -0.015135485 0.065691687
-0.0043079401 -0.015089 0.065792561
0.0052205692 -0.01509659 0.063947149
0.013252798 -0.012911487 0.06227123
-0.032708019 -0.0043605939 0.062334362
-0.02554179 -0.0052564363 0.066040277
-0.016381603 -0.006968033 0.06908191
-0.0041075624 -0.0072420631 0.069179736
0.0056536631 -0.0056659393 0.068117134
0.015269418 -0.0052613602 0.0649262
0.021621175 -0.0033744175 0.061751936
-0.033765167 0.0047992649 0.063178964
-0.026684875 0.0042152954 0.067948401
0.0089123715 0.000965146 0.069602057
0.015293999 0.00450951 0.06726709
0.022954823 0.0049017356 0.06241709
-0.033649139 0.014403072 0.063512877
-0.026882164 0.015369542 0.068211973
0.0096045863 0.018748913 0.069684535
0.015110915 0.014773866 0.067248978
0.022845799 0.014249806 0.06281171
-0.0321205 0.021653231 0.061992079
-0.025269207 0.024691354 0.064532749
-0.015888624 0.026875379 0.067675248
-0.0041115172 0.026895601 0.067892261
0.0060391161 0.025921123 0.06710089
0.01426743 0.02408207 0.063666269
0.021129316 0.020722875 0.061353154
-0.02249386 0.031497754 0.061345626
-0.014658752 0.033537544 0.062866695
-0.0045150835 0.034058604 0.062917374
0.0046916334 0.032617223 0.062511727
0.0110434 0.03075609 0.060826868
-0.013588029 -0.0029466373 0.070927374
-0.0044375663 -0.0025514842 0.070615821
0.0023523308 -0.0015250426 0.070549861
-0.021959774 0.0058850427 0.070901699
-0.015358861 0.0042937011 0.0716746
-0.0047476431 0.0041529066 0.071301512
0.005051164 0.004658964 0.071160085
-0.022327846 0.01355411 0.070867419
-0.014994111 0.014549104 0.072580427
-0.004796165 0.014714037 0.072312325
0.0055168648 0.014618877 0.071382217
-0.013822954 0.021935411 0.071496807
-0.0052548759 0.021627214 0.071415842
0.0041629695 0.020749986 0.070507683
