# .PCD v0.7 - Point Cloud Data file format
VERSION 0.7
FIELDS x y z
SIZE 4 4 4
TYPE F F F
COUNT 1 1 1
WIDTH 792
HEIGHT 1
VIEWPOINT 0 0 0 1 0 0 0
POINTS 792
DATA ascii
-0.02142895 -0.021283165 0.007344061
-0.014485423 -0.022740491 0.0062056324
-0.0048294887 -0.023380499 0.005742027
0.0046640229 -0.022590129 0.0064005284
0.011464838 -0.021162136 0.0076973746
-0.032912575 -0.012388329 0.0073664337
-0.025661884 -0.015930083 0.0050623612
-0.01497297 -0.017408581 0.0027958949
-0.0036361367 -0.018032294 0.002685966
0.0060515758 -0.016498063 0.0030538179
0.014875881 -0.015994301 0.0053144554
0.021229526 -0.012779259 0.0068385066
-0.040392324 -0.0022224784 0.0078650825
-0.036041066 -0.0053669196 0.0055608819
-0.027162198 -0.0060042017 0.0025892945
-0.015569642 -0.0069958866 0.0014938712
-0.0060228407 -0.0069958866 0.001263177
0.0059106648 -0.0069958866 0.0016365582
0.016688794 -0.0062309718 0.0026053868
0.024790497 -0.0056935688 0.005729184
-0.042000182 0.0053349417 0.00708385
-0.037565306 0.00365248 0.0037980305
-0.027503155 0.0025509298 0.001893214
-0.015569642 0.0025509298 0.0008602757
-0.0060228407 0.0025509298 0.00055499375
0.0035239607 0.0025509298 0.00080136769
0.015457474 0.0025509298 0.0016729059
0.027425332 0.0040999982 0.005282125
0.030480092 0.0073243231 0.0078650825
-0.042604316 0.015279963 0.0066951714
-0.037762336 0.015081111 0.0033268139
-0.025116459 0.012097731 0.0012422185
-0.015569642 0.012097731 0.00051161088
-0.0060228407 0.012097731 0.000396844
0.0035239607 0.012097731 0.00052663311
0.013070777 0.012097731 0.0012023132
0.027619822 0.015379449 0.0045609367
0.031039108 0.015677787 0.0078650825
-0.0415738 0.022602728 0.0076400111
-0.0368715 0.025823556 0.0047335951
-0.027503155 0.024031237 0.0016788449
-0.015569642 0.021644533 0.00075544231
-0.0060228407 0.021644533 0.00044941902
0.0035239607 0.021644533 0.00072892569
0.015457474 0.024031237 0.0018001627
0.026105337 0.025123727 0.0054056114
-0.033349562 0.032814782 0.0061331214
-0.026128894 0.036142644 0.0041743512
-0.014137626 0.034810331 0.001805225
-0.0036361367 0.033578046 0.0013494259
0.0059106648 0.033578046 0.0016678316
0.016183093 0.035588838 0.0035797672
0.02211499 0.034260094 0.0064989501
-0.022134732 0.041673277 0.0065658325
-0.01414802 0.044361059 0.0054045287
-0.0045908182 0.046532255 0.0051194853
0.0052553606 0.045168009 0.0052237795
0.013664241 0.042526912 0.0066159642
-0.023067994 -0.021796899 0.015025188
-0.015385718 -0.02469545 0.014834591
-0.0055631315 -0.025867684 0.014600109
0.0052338052 -0.024197737 0.015025188
0.012388046 -0.021695729 0.014891334
-0.033355355 -0.013845125 0.01520878
-0.02823703 -0.018432871 0.014922096
0.017314708 -0.018279031 0.01502519
0.022810794 -0.01322514 0.015025186
-0.041429862 -0.0028539887 0.014930194
-0.038244274 -0.0081399195 0.014560155
0.028279288 -0.0056796097 0.014821358
0.030074216 -0.0022224784 0.016218539
-0.044034045 0.0050569586 0.014846334
0.031573351 0.0054770722 0.01488537
-0.044739082 0.016270345 0.014960057
0.032127064 0.01532984 0.014670526
-0.042158574 0.023781702 0.014916703
-0.038634505 0.028511658 0.015621863
0.028825145 0.026671695 0.014904945
0.030572869 0.022539547 0.015025189
-0.034165055 0.03309105 0.014474412
-0.02777661 0.037717674 0.015545683
0.023741797 0.035203043 0.014934854
-0.022057462 0.041656584 0.014325022
-0.014847346 0.046472821 0.015208121
-0.0077276295 0.049676869 0.016048063
0.0061694658 0.048678942 0.014882939
0.014919771 0.043969985 0.015070705
-0.0035771306 0.050307799 0.014574381
0.00071015063 0.050190162 0.014547849
-0.023001079 -0.021695297 0.025765346
-0.015241793 -0.024478907 0.025765348
-0.0048294887 -0.0254349 0.025765346
0.0050934604 -0.024038998 0.025765345
0.012000753 -0.02143079 0.025765345
-0.033684183 -0.013496946 0.025609696
-0.028131463 -0.018206486 0.026087826
0.017189391 -0.018161558 0.025765346
0.022184182 -0.013425297 0.025554756
-0.04150841 -0.0030276775 0.025635485
-0.038595669 -0.0078412043 0.026040737
0.027640991 -0.0055512437 0.025567384
-0.044476517 0.0045253006 0.025792651
0.029956147 0.0001642257 0.026958697
0.031232962 0.0051888567 0.025702538
-0.044808671 0.016563129 0.025286311
0.031720061 0.015677787 0.025765346
-0.042174533 0.023991307 0.025975937
-0.038515896 0.028556122 0.025288006
0.028680282 0.026747817 0.025576921
0.030571966 0.022121875 0.026481358
-0.033926979 0.032893337 0.026242686
-0.027629431 0.037527792 0.025486473
0.023305962 0.035448052 0.02576535
-0.021756452 0.041728981 0.026152592
-0.014697534 0.046342306 0.025581757
-0.0060228407 0.049542326 0.026242688
0.005509004 0.048623171 0.025655948
0.01496893 0.043821108 0.025765348
-0.0028405688 0.050045334 0.024969783
-0.023206694 -0.02202072 0.035312153
-0.015401909 -0.024626657 0.035312157
-0.0048294887 -0.02570002 0.035312153
0.0052432143 -0.024256721 0.035312153
0.012450565 -0.02145309 0.03576709
-0.033923343 -0.013674662 0.035467811
-0.028440688 -0.018533161 0.035312157
0.01756466 -0.018234516 0.035073485
0.022234846 -0.013535576 0.035522752
-0.041598115 -0.0032234676 0.035312161
-0.03867979 -0.0079080351 0.035036769
0.027423395 -0.0054646228 0.035179559
-0.044802632 0.0044342442 0.035312153
0.029985592 0.0001642257 0.036505505
0.031519465 0.0060839625 0.035108753
-0.04545169 0.015677787 0.03531215
0.031968955 0.015153777 0.035236437
-0.043063 0.023711663 0.035311304
-0.039311077 0.028682446 0.035312157
0.028735343 0.027111106 0.0349712
0.030389538 0.022837885 0.035312157
-0.034424283 0.033371262 0.035472635
-0.028541587 0.038253948 0.034959096
0.023881277 0.035303097 0.035308901
-0.023142254 0.04223321 0.035475526
-0.014765675 0.04705549 0.035371948
-0.0058239489 0.049703132 0.034914374
0.0053417282 0.048713285 0.035312153
0.014922284 0.044087052 0.035373315
-0.0018461086 0.050018571 0.036505505
-0.023414569 -0.022076432 0.044976506
-0.015406701 -0.024707634 0.044858966
-0.0044215233 -0.026076786 0.045115341
0.0057067699 -0.024513988 0.044939786
0.013162656 -0.021422304 0.044858962
-0.034345597 -0.013825104 0.044858962
-0.028643236 -0.018842328 0.044858959
0.018035652 -0.01827164 0.045336302
0.022653813 -0.013685346 0.04464199
-0.041602518 -0.0036159949 0.045134354
-0.039077841 -0.0079527777 0.044190198
0.028172774 -0.0054770308 0.044672456
0.030027762 -0.0022224784 0.048439011
-0.044885039 0.0044278144 0.044858962
0.031746738 0.005432934 0.044856686
-0.045102742 0.016142154 0.045124151
0.0321666 0.016027158 0.044747464
-0.042521115 0.02395549 0.04459377
-0.039324444 0.028669497 0.044858962
0.02918461 0.026920669 0.044858962
0.030756239 0.022837885 0.044858962
-0.034771498 0.033686586 0.044512324
-0.029579798 0.038495917 0.044461172
0.024412474 0.034825809 0.045018088
-0.024085294 0.042409509 0.045014616
-0.014828335 0.047159486 0.044989146
-0.0069178548 0.049688689 0.044262286
0.0054394179 0.048600901 0.045029398
0.015228683 0.044011701 0.04485897
0.020230874 0.040052392 0.042472258
-0.0027411226 0.050128374 0.045455635
-0.023391718 -0.022066908 0.054306153
-0.015434253 -0.024755156 0.054405767
-0.0046783304 -0.026090888 0.054544568
0.0055184271 -0.024466006 0.054650817
0.013017857 -0.021508267 0.054644439
-0.034302387 -0.013759668 0.054405764
-0.028709348 -0.018921703 0.054405775
0.018075069 -0.018107994 0.054130379
0.022883488 -0.013357873 0.054405767
-0.041927584 -0.0039181332 0.054130383
-0.039106261 -0.0081444159 0.054731224
0.028060073 -0.0063940282 0.05440576
0.030250143 -0.0022224784 0.054405767
-0.045149595 0.004257781 0.05440576
0.032029815 0.0049578073 0.054530747
-0.045493245 0.015677787 0.054405775
0.032360181 0.016620805 0.054350026
-0.042675089 0.023575094 0.054405767
-0.039437201 0.028805289 0.054361999
0.029319003 0.027097931 0.054405771
0.031054432 0.022837885 0.054405767
-0.034651663 0.034282774 0.054589357
-0.029889258 0.038407709 0.053401086
0.024859523 0.034615468 0.05440576
-0.024320995 0.042430989 0.054405764
-0.014813385 0.047205724 0.054416534
-0.0058239489 0.049659356 0.054604657
0.0058457865 0.048863146 0.054468576
0.015349339 0.044175006 0.05440576
0.020230874 0.040240645 0.054405767
-0.0018461086 0.050090548 0.053809091
0.0011372715 0.050002471 0.053212419
-0.023169262 -0.021968884 0.065145932
-0.01539846 -0.024789583 0.065145917
-0.0045301369 -0.026123337 0.065227464
0.00559437 -0.024620846 0.065329514
0.013206077 -0.021478524 0.06514594
-0.034274716 -0.013763607 0.065145932
-0.028532799 -0.018686648 0.065145932
0.018284943 -0.017943701 0.065145932
0.02289487 -0.013377437 0.065145932
-0.041696329 -0.0041720397 0.064748146
-0.039007816 -0.0083225071 0.065742612
0.028057143 -0.0059567224 0.06556844
0.030200928 -0.0022224784 0.062759221
-0.045107055 0.0042248727 0.065145925
0.032080051 0.0048427074 0.065195993
-0.045063742 0.016206617 0.06545724
0.03216828 0.015866386 0.065002419
-0.042418163 0.02397575 0.064820476
-0.039462682 0.028842937 0.065281264
0.02913834 0.026750341 0.065145932
0.030454833 0.022837885 0.065145932
-0.034371067 0.034601122 0.065145925
-0.029889852 0.038650319 0.065145932
0.024501545 0.034790862 0.065081425
-0.024435123 0.042571172 0.065145932
-0.015139618 0.047284868 0.065145925
-0.0048294887 0.049363982 0.065145932
0.0056118555 0.048583739 0.065283075
0.015326735 0.044156276 0.065145925
0.020230874 0.040127408 0.065941498
-0.023174252 -0.021993171 0.075886078
-0.015183126 -0.024891933 0.076056555
-0.0047533233 -0.026134143 0.075589545
0.0055242353 -0.024431538 0.07604371
0.013183731 -0.021431748 0.075886086
-0.034388356 -0.013893699 0.075886086
-0.028548284 -0.018698771 0.075886086
0.018285658 -0.017957442 0.075886086
0.022768361 -0.013184539 0.075886086
-0.041928004 -0.00351975 0.075886086
-0.039200827 -0.0080168284 0.075886086
0.027944742 -0.0060850526 0.075728208
0.030241415 -0.0022224784 0.077079438
-0.044957526 0.0043080314 0.075886078
0.032199405 0.0046651172 0.075886078
-0.045161564 0.016346937 0.075697653
0.032255061 0.015871881 0.075886078
-0.042258892 0.023995345 0.076096669
-0.039374813 0.028717302 0.075886086
0.029183155 0.026818663 0.075886086
0.030567095 0.022837885 0.075886086
-0.034408409 0.034621432 0.075886071
-0.029889852 0.038808588 0.075886086
0.024673304 0.034768034 0.076009519
-0.024481386 0.042592913 0.075886086
-0.014825244 0.047145069 0.075740099
-0.0048294887 0.049216293 0.075886078
0.0052738078 0.048310705 0.075886078
0.015320322 0.044112105 0.075886086
0.020230874 0.040225357 0.074692741
-0.023106324 -0.022227185 0.085222296
-0.014398928 -0.025348997 0.085370883
-0.0043078312 -0.02643165 0.085432909
0.0050370716 -0.024772743 0.085432887
0.012903227 -0.021724792 0.085432902
-0.034521382 -0.013988398 0.085432909
-0.028762441 -0.019000664 0.085432887
0.017730322 -0.018170094 0.085432895
0.022825891 -0.013245982 0.085432895
-0.041815653 -0.0038256773 0.085708275
-0.039127596 -0.0081197023 0.085107438
0.028006583 -0.00631767 0.085432887
0.030110948 -0.0022224784 0.085432887
-0.045032632 0.0043153479 0.085432909
0.032111607 0.0048740036 0.085432902
-0.045299042 0.016111961 0.085698068
0.032334208 0.016003417 0.085192807
-0.042420793 0.023822406 0.085167713
-0.039534282 0.028951479 0.084917441
0.029256076 0.026961744 0.085432902
0.030735077 0.022837885 0.085432895
-0.034615796 0.034783132 0.085432909
-0.029889852 0.039128222 0.085432887
0.024398826 0.0351092 0.085317396
-0.024701046 0.042560168 0.085232772
-0.014612865 0.04688663 0.085432902
-0.0048294887 0.049174726 0.085432902
0.0056451978 0.048546571 0.085319355
0.015135796 0.043989502 0.085432895
0.020230874 0.040096924 0.089012943
-0.02291169 -0.022400223 0.094913088
-0.013710201 -0.025528494 0.094979696
-0.0048294887 -0.026436958 0.094979696
0.0046463492 -0.024901515 0.094979718
0.01319585 -0.021453472 0.094979696
-0.034558769 -0.014223411 0.094790928
-0.028751962 -0.019000232 0.094979696
0.018229287 -0.017925926 0.094979703
0.022787144 -0.013212994 0.094979703
-0.041739639 -0.0045939316 0.0949357
-0.039019011 -0.0088249911 0.094979703
0.028276913 -0.0053039468 0.094903298
-0.044926524 0.0042313989 0.094979703
0.031937227 0.0049949596 0.09479636
-0.044963885 0.016268361 0.094791278
0.032477703 0.016224748 0.094979703
-0.042355325 0.024110766 0.095190294
-0.039599538 0.029054906 0.094979703
0.029233871 0.026996553 0.094979703
0.030860821 0.022837885 0.094979703
-0.034683779 0.034839835 0.094979718
-0.029889852 0.039112501 0.094979703
0.02493339 0.034676977 0.094979689
-0.024690259 0.042391963 0.095134802
-0.014651749 0.046935022 0.094979696
-0.0048294887 0.049315382 0.094979696
0.0057108058 0.048669316 0.095157281
0.01544046 0.044258561 0.094979711
0.020230874 0.040348656 0.094979696
-0.023286626 -0.022105992 0.1045265
-0.01430843 -0.025190948 0.10455634
-0.0048294887 -0.026522035 0.1045265
0.0046508959 -0.025003426 0.10454744
0.013308009 -0.02163633 0.1045265
-0.034670811 -0.014166879 0.10452959
-0.02871803 -0.018953636 0.10452652
0.017584816 -0.018729161 0.1045265
0.022294965 -0.014164519 0.10443686
-0.041896954 -0.0047060242 0.10452648
-0.039174173 -0.0090213455 0.1045265
0.028232591 -0.005999459 0.10417565
0.030320983 -0.0022224784 0.10571986
-0.045015078 0.0042285407 0.1045265
0.032056447 0.0049623745 0.10455031
-0.045398019 0.015677787 0.10452649
0.032379236 0.016058195 0.1045265
-0.042470086 0.02438022 0.10468215
-0.039518308 0.029446075 0.1038105
0.029116265 0.026838539 0.1045265
0.03073813 0.022837885 0.10452651
-0.034773864 0.034904853 0.1045265
-0.029889852 0.039274201 0.1045265
0.024650881 0.03473166 0.10464995
-0.024661448 0.042807963 0.1045265
-0.014912873 0.047265977 0.10451232
-0.0048294887 0.049471311 0.1045265
0.005212836 0.048396792 0.1045265
0.015211381 0.044098891 0.1046324
0.020230874 0.040272862 0.10333316
-0.022932479 -0.022530535 0.11405803
-0.014215532 -0.025651526 0.11427359
-0.0048294887 -0.026626935 0.11407333
0.0047217933 -0.025084995 0.11410343
0.013082266 -0.021659693 0.11383465
-0.034694608 -0.014003344 0.11407527
-0.028725347 -0.018964536 0.11407331
0.017864458 -0.018209143 0.11467
0.022719584 -0.013467502 0.11390284
-0.041805603 -0.0046336502 0.11416208
-0.039100152 -0.0089288615 0.11407331
0.02805211 -0.0064037903 0.11407333
0.030343734 -0.0022224784 0.11407331
-0.044908583 0.0042652502 0.11407332
0.032122586 0.0049461918 0.11402761
-0.045057725 0.015929015 0.11400313
0.032407504 0.016038889 0.11407333
-0.042257007 0.024752205 0.114313
-0.039436668 0.02987512 0.1144711
0.028799441 0.027276132 0.1144143
0.030719237 0.022837885 0.11407331
-0.035077889 0.034835305 0.11403216
-0.029889852 0.039583679 0.11407331
0.023818215 0.035327345 0.11391419
-0.024228049 0.043187451 0.11394071
-0.014328694 0.047527365 0.1141699
-0.0048294887 0.049101744 0.11407332
0.0050395713 0.048067831 0.11421341
0.014953475 0.043744516 0.11407331
-0.023017 -0.022523906 0.12487844
-0.014089124 -0.025818516 0.12488329
-0.0044527412 -0.026382059 0.12513894
0.004788375 -0.024962686 0.12443504
0.012360025 -0.021880405 0.12481347
-0.034356859 -0.013843471 0.12481347
-0.028658437 -0.018852744 0.12481347
0.017447252 -0.018374287 0.12481349
0.022800915 -0.013213537 0.12481347
-0.041778602 -0.004231785 0.12468088
-0.03906903 -0.008377891 0.12501235
0.027962349 -0.0061203097 0.12505454
0.030218579 -0.0022224784 0.12362012
-0.044967871 0.0042412351 0.12481348
0.032037765 0.0049496228 0.12486935
-0.045223527 0.015868464 0.12504077
0.032298286 0.015986804 0.12481346
-0.042478561 0.024917202 0.12475758
-0.039436668 0.029899046 0.12004006
0.028727293 0.02728066 0.12441567
0.03061018 0.022837885 0.12481347
-0.035430498 0.034543905 0.12493587
-0.029889852 0.039578196 0.12481347
0.023724576 0.035349987 0.12500696
-0.024593679 0.042631902 0.12481348
-0.01457525 0.046875421 0.12508816
-0.0048294887 0.048819382 0.12481346
0.0048514581 0.0479149 0.12472565
0.014892554 0.043693464 0.12481347
-0.023570921 -0.022281077 0.1355665
-0.014134399 -0.025808442 0.13563789
-0.0041600796 -0.026257437 0.13549083
0.0054459623 -0.024719935 0.13579726
0.012625274 -0.021720756 0.13565835
-0.03439226 -0.013868379 0.13555363
-0.029226238 -0.018718749 0.13595143
0.01756295 -0.018255396 0.1356332
0.022555465 -0.013180259 0.13561644
-0.041764319 -0.004608782 0.13551106
-0.038935076 -0.0087578613 0.13555363
0.028026029 -0.0052653425 0.13527438
-0.044832725 0.0040107416 0.13563353
0.031805463 0.0053968756 0.13567813
-0.044650517 0.016418247 0.13533756
0.032121893 0.015812904 0.13545999
-0.041982871 0.024533268 0.13534304
-0.039646074 0.02933768 0.13606507
0.028776752 0.026637277 0.13623443
0.030599136 0.022440102 0.13475807
-0.034940794 0.035047211 0.13555363
-0.029889852 0.039356634 0.13555363
0.023468936 0.035168312 0.13538125
-0.024528222 0.042326506 0.13566099
-0.014175919 0.046734065 0.13571288
-0.0048294887 0.048502315 0.13555363
0.003845732 0.047491685 0.13553809
0.014546267 0.043357957 0.13541594
-0.02270351 -0.02229197 0.14486669
-0.014408716 -0.025427267 0.14510043
-0.0039305952 -0.026385598 0.14463761
0.0053455974 -0.024627412 0.14529814
0.01231396 -0.021721708 0.14515169
-0.034198515 -0.013677515 0.14510047
-0.028580813 -0.018741604 0.14510043
0.017113147 -0.018110592 0.14510044
0.022657549 -0.012972549 0.14510046
-0.042016353 -0.0036396377 0.14431664
-0.03909244 -0.0081211952 0.14542589
0.027859943 -0.006043917 0.14525957
0.030097213 -0.0022224784 0.14390709
-0.044946741 0.0042357976 0.14516053
0.032022495 0.0051176986 0.14495437
-0.044747062 0.016615698 0.14491743
0.032230981 0.015932353 0.14507078
-0.041823305 0.025298541 0.14510043
-0.039436668 0.029829105 0.14549823
0.028658964 0.026751669 0.14473705
0.030615907 0.022440102 0.14589602
-0.035037503 0.034817532 0.1450593
-0.029889852 0.039280921 0.14510044
0.02334227 0.035368413 0.145165
-0.024642238 0.042483862 0.14489791
-0.01481628 0.046538826 0.14495745
-0.005343684 0.04825582 0.14536563
0.0044277092 0.047622535 0.14507788
0.014650719 0.043450631 0.1450129
-0.023526825 -0.022420621 0.15443915
-0.014289954 -0.025941091 0.15479562
-0.0043174666 -0.026574951 0.15464722
0.0051308945 -0.024742827 0.15464735
0.012461165 -0.021843819 0.15492788
-0.034369744 -0.013821458 0.15464725
-0.029260391 -0.018728085 0.15424944
0.017368473 -0.018341744 0.15464726
0.022752149 -0.013112578 0.15464722
-0.041610103 -0.0032167635 0.15464723
-0.039043367 -0.0077075153 0.15459059
0.028035844 -0.0055554016 0.15449159
0.030043408 -0.0022224784 0.15822729
-0.044318438 0.0045078043 0.15468283
0.032042008 0.004894387 0.15479602
-0.044469986 0.016086025 0.15464723
0.032357436 0.016134942 0.15464725
-0.0420263 0.024253881 0.15464725
-0.039462943 0.028837578 0.15464339
0.028550543 0.027486015 0.15464722
0.030613881 0.022837885 0.15464722
-0.034641352 0.034799807 0.15464722
-0.029889852 0.039233103 0.15464723
0.023398571 0.035272013 0.15470892
-0.024602545 0.042438619 0.15474378
-0.014495258 0.046687551 0.15493843
-0.0051309746 0.048582889 0.15443666
0.0049905912 0.047977373 0.15468429
0.014642579 0.043445081 0.15461877
-0.023971885 -0.022523357 0.16419406
-0.01440689 -0.026036697 0.16428532
-0.0042398744 -0.026550503 0.16460216
0.0050833058 -0.024681257 0.16414614
0.012338428 -0.021704776 0.16418885
-0.034435552 -0.01424544 0.16432737
-0.029702028 -0.018785223 0.16419405
0.017544134 -0.018405376 0.16419405
0.022914583 -0.01339589 0.16419403
-0.041790724 -0.003387881 0.16419405
-0.039179556 -0.0080004595 0.16419405
0.027843317 -0.0062052142 0.16428106
0.030091282 -0.0022224784 0.16419405
-0.044512916 0.0044387947 0.16426632
0.031964149 0.0051145172 0.16435827
-0.044707716 0.016532486 0.16417262
0.032289866 0.016049735 0.1642334
-0.042118993 0.024252215 0.16419408
-0.039523412 0.028940851 0.16379941
0.029014537 0.026550075 0.16502276
0.030565422 0.022667406 0.16368262
-0.034666657 0.034823053 0.16419406
-0.029889852 0.039182741 0.16419405
0.023826392 0.03493106 0.16421713
-0.024677897 0.042601436 0.16416244
-0.014901048 0.047176175 0.16418964
-0.0048294887 0.048714764 0.16419405
0.0049054339 0.047970381 0.16419405
0.014512148 0.043361221 0.16419405
-0.023410603 -0.022377193 0.17448969
-0.014504569 -0.025256736 0.17487487
-0.0048789266 -0.026205828 0.17495809
0.0052053705 -0.02470676 0.17531261
0.01317549 -0.021443045 0.17493419
-0.034338143 -0.013808386 0.17493422
-0.028838882 -0.018674962 0.175485
0.017807523 -0.018543875 0.17450026
0.022534922 -0.014201352 0.17508717
-0.041476041 -0.0030762625 0.17493421
-0.039000265 -0.0077470802 0.17490673
0.028127041 -0.0064256 0.17493421
0.030219907 -0.0022224784 0.17493421
-0.044216447 0.0047657229 0.1749911
0.032087438 0.0048955451 0.17502499
-0.044447288 0.016233191 0.17476134
0.032170348 0.015835088 0.17475751
-0.04209011 0.024273679 0.17493419
-0.039500874 0.02889955 0.17493422
0.028481856 0.026390547 0.17481516
0.030442253 0.021644533 0.17493421
-0.03459144 0.03473923 0.17493419
-0.029889852 0.039390214 0.17493421
0.023068136 0.035412654 0.17516272
-0.024321258 0.04313641 0.17493421
-0.014422283 0.047362771 0.17486618
-0.0048294887 0.048669845 0.17493419
0.0046430496 0.047737293 0.17508267
0.014339734 0.043210808 0.17500366
-0.022974694 -0.022449367 0.18529166
-0.014463951 -0.025229827 0.18580694
-0.0050145201 -0.026146505 0.18568455
0.0050831572 -0.024550717 0.18550389
0.01213868 -0.021493392 0.18531036
-0.034342982 -0.013811596 0.18567437
-0.028821137 -0.018837377 0.18556589
0.01708075 -0.018067084 0.1856744
0.022677703 -0.01306886 0.18541417
-0.041826218 -0.0034204896 0.18567437
-0.039143857 -0.0078929104 0.1852864
0.028050931 -0.0058893347 0.18602467
0.030091032 -0.0022224784 0.18328765
-0.044698518 0.0043915678 0.18567437
0.032014091 0.0049387575 0.18565458
-0.04432464 0.016033422 0.18564804
0.032104708 0.015792022 0.18575206
-0.042194329 0.024368949 0.18567438
-0.039593667 0.029027704 0.18567437
0.028344452 0.026078949 0.18567437
0.030394513 0.021644533 0.18567437
-0.034759242 0.034881782 0.18567437
-0.029889852 0.03958061 0.18567435
0.019469142 0.038676519 0.18591304
0.02328207 0.034396093 0.18567434
-0.024385316 0.043076932 0.18585797
-0.014306031 0.047138751 0.18545741
-0.0048294887 0.048542853 0.18567437
0.0048308056 0.046984658 0.18576971
0.014525953 0.042533506 0.18562247
-0.022999294 -0.022484351 0.19519827
-0.014376298 -0.02537415 0.19522116
-0.0052716662 -0.026058519 0.19527614
0.0055658803 -0.024484092 0.19519947
0.012544189 -0.021593485 0.19547679
-0.034362078 -0.0138622 0.19522117
-0.028609261 -0.018778527 0.19522117
0.017407596 -0.018148575 0.19498251
0.022401409 -0.013284114 0.19522117
-0.041747671 -0.0033460334 0.19522117
-0.039176822 -0.0079920618 0.19522117
0.027757168 -0.0054254732 0.19504286
-0.044422634 0.0044718799 0.19520544
0.031864222 0.0050580744 0.19522116
-0.044434305 0.016087746 0.19522117
0.032009173 0.015500489 0.19501905
-0.041738644 0.023984192 0.19512834
-0.039389789 0.02872069 0.19489619
0.028424818 0.026191009 0.19522117
0.030483864 0.021644533 0.19522117
-0.034553487 0.034716658 0.19522122
-0.029889852 0.039243218 0.19522117
0.019896239 0.038351446 0.19880122
0.022804543 0.035157803 0.19503851
-0.024659997 0.042778105 0.19522117
-0.01472334 0.04679808 0.19500338
-0.0053891903 0.048302293 0.19522117
0.0047896076 0.046957139 0.19514589
0.014679274 0.04241718 0.19522117
-0.0227456 -0.02252836 0.20476797
-0.013816075 -0.025771497 0.20469874
-0.0042225262 -0.026405824 0.20434341
0.0050631696 -0.02482724 0.20530604
0.012849675 -0.021633068 0.20461267
-0.034219056 -0.013704522 0.20476797
-0.028518561 -0.018643757 0.20476797
0.017739486 -0.018134389 0.20510894
0.022602584 -0.013237157 0.20457955
-0.041696779 -0.0033217359 0.20476797
-0.038993638 -0.0077590393 0.20474036
0.027843527 -0.0054191411 0.20491119
-0.044358898 0.0045703356 0.20490789
0.031559546 0.0053508035 0.20437875
-0.044521637 0.016113637 0.20476797
0.031572171 0.015265849 0.20435159
-0.041674014 0.023955984 0.20476797
-0.039234858 0.028469419 0.20476799
0.028263802 0.025949407 0.20476797
0.030183889 0.021644533 0.20476797
-0.034504354 0.034690782 0.204768
-0.029889852 0.03902714 0.20476797
0.018491656 0.038899586 0.20476799
0.023082051 0.034116555 0.20476799
-0.024632873 0.042567138 0.20465186
-0.015128082 0.046651673 0.2045975
-0.0056726201 0.048220452 0.20517741
0.0047246828 0.046767421 0.20478629
0.013596017 0.042505298 0.20468763
-0.022640327 -0.022440629 0.21439943
-0.014242149 -0.025864765 0.2143148
-0.0048294887 -0.026893243 0.21431479
0.0046187243 -0.025009166 0.21449234
0.012042785 -0.021495715 0.21431479
-0.0343104 -0.013747638 0.2143148
-0.02859867 -0.01878692 0.21431479
0.017142821 -0.018108234 0.21431479
0.022529321 -0.013098349 0.21412636
-0.041643828 -0.0032731607 0.21431479
-0.038916152 -0.0077073211 0.21449919
0.027870255 -0.0054806178 0.21445799
-0.04447611 0.0044609592 0.2143458
0.031224167 0.004937625 0.2143148
-0.044437222 0.016100496 0.21447003
0.031186972 0.015677787 0.2143148
-0.041756004 0.023999142 0.2143148
-0.039340891 0.028653901 0.21431477
0.028455442 0.025330886 0.21476105
0.030098379 0.021644533 0.21192808
-0.034483369 0.034664642 0.21431483
-0.029889852 0.039065439 0.21431479
0.018199081 0.038651053 0.21431477
0.022993946 0.033786986 0.21441114
-0.024662945 0.042609025 0.21436909
-0.015375853 0.046563819 0.21431482
-0.0048100017 0.047791239 0.21378398
0.005631153 0.046293367 0.21460564
0.013406939 0.042266328 0.2143148
-0.023100859 -0.022399228 0.22487614
-0.013925482 -0.025698161 0.22492389
-0.0044668419 -0.026396979 0.22525385
0.0049335845 -0.024651669 0.22505493
0.012272229 -0.021571346 0.22541794
-0.034198437 -0.013626664 0.22505493
-0.028920131 -0.018763408 0.2256057
0.017263645 -0.018231321 0.22505496
0.021966418 -0.013610658 0.22505493
-0.041507319 -0.0029520637 0.22525176
-0.038883612 -0.0077037392 0.22496837
0.027149314 -0.0059252279 0.22483799
-0.043962132 0.0051432783 0.22494109
0.029734556 0.00041411322 0.22761244
0.031065635 0.0055885431 0.22472948
-0.043878693 0.015049765 0.22506858
0.031210234 0.015677787 0.22505493
-0.041373398 0.023690635 0.22505496
-0.039181195 0.028342241 0.22505496
0.027996324 0.024921658 0.22520722
-0.034595005 0.034741066 0.22505496
-0.029889852 0.039525505 0.22505496
0.018043462 0.038524758 0.22505496
0.02252478 0.033649478 0.22492453
-0.024630059 0.042699125 0.22505495
-0.014597339 0.046934817 0.22521496
-0.0048033269 0.047914878 0.22473447
0.0051640579 0.046008557 0.22515278
0.013133566 0.041999478 0.22505705
-0.022673421 -0.021860139 0.23540735
-0.01528779 -0.024532666 0.23601401
-0.0050403709 -0.025851229 0.23546371
0.0049787736 -0.024316607 0.23574758
0.011896431 -0.021437472 0.23607852
-0.034069527 -0.013846952 0.23563944
-0.028190795 -0.01845739 0.23642285
0.017020691 -0.018171994 0.23600444
0.022278501 -0.013150054 0.23552993
-0.041671913 -0.0031657955 0.23609291
-0.038889527 -0.0079910634 0.23580524
0.027009154 -0.0063427864 0.23614326
-0.043285675 0.0052630841 0.23533028
0.029578915 0.0036600465 0.23691218
0.030701572 0.0070591355 0.23407139
-0.042384408 0.016016698 0.23640761
0.029595898 0.016727487 0.23754038
0.030831937 0.014749625 0.23407139
-0.041123517 0.023066964 0.23455153
-0.038896997 0.027000334 0.23696376
0.026278112 0.025516471 0.23613729
-0.034401517 0.034423955 0.23580867
-0.029485922 0.038798533 0.23719755
0.016879424 0.037349205 0.23654215
0.021565352 0.033153933 0.23519172
-0.024071284 0.042313568 0.23597668
-0.014772102 0.04653478 0.23579301
-0.0045584887 0.047832981 0.23557141
0.0048722881 0.044950034 0.23644039
0.012129604 0.041463476 0.23533782
-0.02034305 -0.021316096 0.24005218
-0.014175597 -0.022115426 0.24194606
-0.0048294887 -0.022409568 0.2424732
0.0043933787 -0.021950359 0.24168709
-0.033112027 -0.012635957 0.24179232
-0.024420414 -0.015071214 0.24302281
-0.014432495 -0.016046304 0.2444547
-0.0048294887 -0.015862903 0.24488425
0.004890779 -0.016011773 0.24429873
0.014344091 -0.015835816 0.24370594
0.020992376 -0.012515898 0.2424628
-0.040529255 -0.0034158304 0.24176185
-0.035822984 -0.006095848 0.2434921
-0.025343763 -0.0059843925 0.24467215
-0.014165707 -0.0054772059 0.24493834
-0.0048294887 -0.0051962272 0.24490243
0.0047906698 -0.0049603032 0.24434493
0.013998936 -0.0052191592 0.24510691
0.024004383 -0.0054264073 0.24355441
-0.041672301 0.004937625 0.24146724
-0.036679626 0.0051452378 0.24442057
-0.024767466 0.0052867839 0.24445479
-0.014784716 0.0045099086 0.24379461
-0.0047745155 0.0041425596 0.24335608
0.0047173165 0.004937625 0.24369489
0.014087657 0.0050146016 0.2442369
0.024540443 0.0048624789 0.24357821
-0.040923934 0.0128933 0.24124864
-0.036103781 0.015526359 0.24307775
-0.025467725 0.01548 0.24400371
-0.014376298 0.015677787 0.24274455
-0.0048294887 0.015677787 0.24226512
0.0047173165 0.015677787 0.2432396
0.014067003 0.01584034 0.24423398
0.024656083 0.015924208 0.24361145
-0.035094514 0.025036216 0.24257155
-0.025297994 0.025777629 0.2441244
-0.014508121 0.025805987 0.24391586
-0.0050400803 0.025485016 0.24329904
0.0047173165 0.025224589 0.24360749
0.014770207 0.025199363 0.24343713
0.022395879 0.024245694 0.24226056
-0.033048764 0.032803759 0.24207993
-0.025289899 0.03517016 0.24309391
-0.014384587 0.03411831 0.24395841
-0.0047839056 0.034530535 0.24412586
0.0044457689 0.034638222 0.24344079
0.014000515 0.034108613 0.24182148
0.020230874 0.031191349 0.24015363
-0.021623868 0.040812131 0.24179938
-0.014200034 0.042918343 0.24199569
-0.0045906208 0.043297265 0.24191707
0.0039911242 0.041488856 0.24169551
