# .PCD v0.7 - Point Cloud Data file format
VERSION 0.7
FIELDS x y z
SIZE 4 4 4
TYPE F F F
COUNT 1 1 1
WIDTH 137
HEIGHT 1
VIEWPOINT 0 0 0 1 0 0 0
POINTS 137
DATA ascii
-0.0066547841 -0.010391368 0.00957698
-0.0146551 -0.0046098316 0.0080702193
-0.005664553 -0.0053885975 0.007225913
0.0028838194 -0.0046369485 0.007891004
-0.024386728 0.0062578353 0.0091025317
-0.017616 0.0021871903 0.0069852299
-0.0066547841 0.0026158215 0.0058890348
0.0050274357 0.0023913272 0.006950018
0.011555281 0.0026158215 0.0084376242
-0.024607504 0.012649939 0.0093074394
-0.017974598 0.013993028 0.0067694983
-0.0066547841 0.013021572 0.0056471988
0.0053807828 0.013756387 0.0067894547
0.011555281 0.013021572 0.008118148
-0.01595868 0.022306876 0.0075679021
-0.0066547841 0.024133075 0.006975017
0.0034178949 0.022986395 0.0076838098
0.011555281 0.020825883 0.0093516055
-0.021824379 -0.010426871 0.016964024
-0.015392253 -0.012891267 0.015223355
-0.0052119773 -0.015847633 0.01553709
0.0050777416 -0.013554246 0.014922822
0.012139613 -0.010929168 0.017086316
-0.030067723 -0.0002909787 0.01767775
-0.025155598 -0.0054948833 0.015217743
-0.019661974 -0.0086853281 0.012474876
0.0089538433 -0.0096384548 0.012474876
0.015833102 -0.0052861678 0.015074711
-0.030722693 0.0047074906 0.016523184
-0.0276566 0.0030282487 0.012681439
0.018595414 0.0033253047 0.012846343
0.021721208 0.0045417384 0.016725827
-0.030727006 0.014011686 0.016514242
-0.027994484 0.015034663 0.012760779
0.018524623 0.014062147 0.012473965
0.021721184 0.014518096 0.016662482
-0.030067723 0.020825883 0.019609001
-0.024922824 0.024634004 0.015124451
-0.019085592 0.028512556 0.012768811
0.0089538433 0.029503608 0.012474876
0.015896183 0.025040016 0.014820959
0.020774163 0.020825883 0.01767775
-0.015250817 0.032876071 0.01582111
-0.0055799461 0.034834877 0.014787599
0.0047870199 0.033731736 0.015267393
0.012308145 0.031088132 0.017026845
-0.023330748 -0.011832103 0.024643082
-0.015587162 -0.016283698 0.024428502
-0.005612528 -0.018712828 0.023488812
0.0052332473 -0.017425569 0.024151448
0.014105271 -0.012454454 0.024700675
-0.030322084 -0.0031044439 0.023769025
-0.0277947 -0.0071757948 0.02378306
0.018899607 -0.0073166033 0.023880363
0.021603832 -0.0034161536 0.024868034
-0.032642551 0.0039179809 0.024139166
0.023797827 0.0038956222 0.024410987
-0.032915555 0.014897519 0.023998875
0.024220375 0.014276992 0.024608677
-0.030631911 0.022458559 0.024639934
-0.027217286 0.027182547 0.023488278
0.018527335 0.027580457 0.023145331
0.021901017 0.022730621 0.024363095
-0.023112092 0.031904925 0.024972666
-0.016009612 0.036199018 0.023994235
-0.0053467415 0.038825959 0.024433186
0.0053096875 0.037076969 0.024215305
0.013499386 0.032607082 0.024305858
-0.0040533468 -0.020094048 0.030684941
-0.022985391 -0.011173864 0.033913303
-0.015692636 -0.015828602 0.034767549
-0.0055510378 -0.0189075 0.035855472
0.0050909924 -0.017794566 0.03502395
0.013853312 -0.013131018 0.033990469
-0.030213263 -0.0026840966 0.032953631
-0.026935095 -0.0063909418 0.035073735
0.018792341 -0.0074010254 0.035476368
0.021754697 -0.0035670116 0.034034319
-0.032475971 0.0038912422 0.034991063
-0.02996706 1.4383346e-05 0.038489252
0.023881057 0.0036948079 0.03452272
-0.033469569 0.014763086 0.035283025
0.023877356 0.014563292 0.034524295
-0.031223003 0.022544853 0.034141198
-0.027479464 0.027421879 0.035509221
0.018112373 0.027355712 0.035186056
0.021865685 0.022588925 0.034080241
-0.023389513 0.03221542 0.034448083
-0.015950032 0.03639736 0.03483396
-0.0051528215 0.039021563 0.034764975
0.0055248416 0.036760218 0.035044756
0.01326076 0.032338817 0.034239974
-0.020873044 -0.010391368 0.04109069
-0.015150608 -0.012488778 0.04454894
-0.0056467908 -0.014250118 0.045767907
0.0049296003 -0.013315403 0.045055345
0.012395524 -0.011248011 0.041888069
-0.024080455 -0.0043526134 0.044073477
-0.017869854 -0.0064889211 0.048331715
0.0079511283 -0.0067909779 0.048790615
0.015355151 -0.0048468751 0.044696186
-0.030390957 0.0057999883 0.042295262
-0.026564077 0.0033544737 0.046590786
0.017156212 0.0034149073 0.047353826
0.021539733 0.0046084793 0.041877024
-0.031216357 0.014281542 0.042810418
-0.027285112 0.015087918 0.04770577
0.01747706 0.015210585 0.046831168
0.02153744 0.013095028 0.04151953
-0.030067723 0.020703636 0.040968962
-0.024749637 0.024079494 0.044474758
-0.017836319 0.02680208 0.04815077
0.0061076176 0.027331825 0.048256356
0.014727159 0.024523156 0.0445146
0.020114347 0.020825883 0.04109069
-0.02173996 0.030776959 0.04109069
-0.015015624 0.033196378 0.044382211
-0.0050805588 0.034292929 0.045706835
0.0046352753 0.033223901 0.043790355
0.011319274 0.031048631 0.040766507
-0.0014519095 -0.010391368 0.050032791
-0.013858401 -0.0039970372 0.051417761
-0.0053739594 -0.0048677279 0.052695513
0.0041948911 -0.0041452879 0.052187264
-0.021838991 0.0057451832 0.0512679
-0.01519727 0.0040189112 0.053971574
-0.0051586851 0.0036771591 0.056805894
0.0053059193 0.0038752507 0.055350818
0.012134048 0.0045166072 0.051840372
-0.022741869 0.013915531 0.05112198
-0.015630933 0.014640552 0.054523531
-0.0053364746 0.01542662 0.05753804
0.0053156386 0.014569052 0.055134498
0.012477672 0.01417762 0.051509365
-0.014390907 0.023373516 0.052043088
-0.0054629343 0.024902688 0.053208087
0.0037431594 0.022929532 0.052060824
