# .PCD v0.7 - Point Cloud Data file format
VERSION 0.7
FIELDS x y z
SIZE 4 4 4
TYPE F F F
COUNT 1 1 1
WIDTH 184
HEIGHT 1
VIEWPOINT 0 0 0 1 0 0 0
POINTS 184
DATA ascii
-0.01182729 -0.011632727 0.0077892588
-0.0052834577 -0.013568051 0.0060258503
0.004359893 -0.014390942 0.0061807502
0.012157625 -0.011929553 0.0068917484
-0.015019691 -0.0052229394 0.0054940735
-0.0071594235 -0.0062206839 0.0022092999
0.0042933621 -0.0055218386 0.0017240206
0.015428446 -0.005568767 0.0047779102
0.020562198 -0.0022371076 0.0077892588
-0.020106051 0.0047341548 0.0093699889
-0.01656484 0.0050496575 0.0045566591
-0.0063208034 0.0047481554 0.00080899172
0.0053147427 0.0047341548 0.00075974735
0.017441386 0.0047341548 0.003338767
0.021847608 0.0043196296 0.0075518158
-0.014997099 0.015136006 0.0055218926
-0.0071594235 0.015688993 0.0021466615
0.0042933621 0.015021419 0.0016805216
0.015662571 0.015242994 0.004622723
0.021617826 0.011377927 0.0080329627
-0.012274239 0.021450084 0.0077892588
-0.0057851993 0.023549328 0.00600291
0.0046475148 0.024151377 0.0058672284
0.012824151 0.021918617 0.0072411047
-0.013128181 -0.011705948 0.016503334
-0.0060511702 -0.015931122 0.014716886
0.0069217589 -0.016641768 0.01588401
0.014088878 -0.013028494 0.015636703
-0.020093951 -0.0018626162 0.015457645
-0.01747888 -0.0066418392 0.017171768
0.01902655 -0.0083947619 0.015495624
0.021664277 -0.0038066269 0.015732778
-0.021013821 0.0053150933 0.017084273
0.023327643 0.0041004037 0.01539427
-0.020115379 0.011526419 0.016027767
-0.017314941 0.016718656 0.014411956
0.018386148 0.018847981 0.014112222
0.021766922 0.013562565 0.014760519
-0.012923172 0.021983817 0.01476052
-0.0063718706 0.02575526 0.01476052
0.0054567643 0.026655611 0.014760519
0.013698232 0.023059776 0.014760521
-0.012290481 -0.011512194 0.02441952
-0.0051057986 -0.015498609 0.024872307
0.005970852 -0.015614674 0.024292469
0.013521321 -0.012310426 0.023874389
-0.020172225 -0.00069743622 0.025217414
-0.017166631 -0.0062981946 0.024950882
0.018411906 -0.0077454238 0.024310485
0.021526121 -0.0026415291 0.023783365
-0.020898256 0.0056055626 0.025217416
0.022620903 0.004385592 0.02504313
-0.020096116 0.010954649 0.0240469
-0.017875543 0.015596612 0.02548554
0.018481521 0.017709289 0.025106085
0.021560898 0.012095941 0.024669543
-0.012738395 0.021855123 0.025217412
-0.006323149 0.025662778 0.025217412
0.0055532521 0.026588243 0.025217414
0.013765323 0.022807553 0.025280416
-0.013129265 -0.01268326 0.035592508
-0.0064506005 -0.016367186 0.035308927
0.0054788128 -0.016946325 0.035468068
0.013373811 -0.013175243 0.035674304
-0.020171409 -0.0023311812 0.036175743
-0.017476616 -0.0075929007 0.035393558
0.018162545 -0.0083710626 0.035176359
0.021397527 -0.0029484597 0.036074985
-0.020993743 0.0053150938 0.03335055
0.022524886 0.0047341548 0.035674304
-0.020120839 0.011531389 0.035267089
-0.017658114 0.016620895 0.035000481
0.018209141 0.018638236 0.035767891
0.021303801 0.012728768 0.035681788
-0.013128113 0.022156883 0.035678886
-0.0066789491 0.026129138 0.035674307
0.0048556728 0.027144626 0.035325743
0.013065153 0.023665095 0.035991181
-0.013199057 -0.012736351 0.046390392
-0.0064020455 -0.016300175 0.04613119
0.0054645701 -0.017081894 0.046131201
0.014253165 -0.012909694 0.046145946
-0.020448823 -0.0032518208 0.046131194
-0.017576015 -0.0082932562 0.046473768
0.01896861 -0.0083204862 0.046054136
0.021355383 -0.0041254358 0.046131201
-0.021567842 0.0047341548 0.046131194
0.022978682 0.0047341548 0.046131194
-0.020248063 0.012129555 0.046131194
-0.017527953 0.017669762 0.046131194
0.018353499 0.018837152 0.046131194
0.021568067 0.01335588 0.04613119
-0.01351513 0.022485733 0.046131194
-0.006895774 0.026423812 0.046131201
0.0042933621 0.027486298 0.046131194
0.012980967 0.023955885 0.046131194
-0.012586318 -0.012268248 0.054845273
-0.0061664865 -0.016030664 0.055014193
0.0053755436 -0.016977062 0.054845273
0.01371514 -0.01270103 0.052999936
-0.020190332 -0.0024459483 0.054845273
-0.01697715 -0.0077401819 0.054845273
0.018597504 -0.0080659864 0.05310246
0.021111412 -0.0034299968 0.054000311
-0.021515485 0.0047341548 0.054845273
0.022684297 0.0047341548 0.054845273
-0.020363897 0.012480181 0.054845273
-0.01768025 0.017757544 0.05484527
0.018269565 0.018724509 0.05484527
0.021335103 0.01299444 0.054845273
-0.013604984 0.022567119 0.05484527
-0.0068820836 0.026328884 0.05484527
0.0042933626 0.027569449 0.05484527
0.012880394 0.02386687 0.05484527
-0.012683774 -0.012346654 0.063559353
-0.006350439 -0.016204376 0.063559353
0.0053099431 -0.016967146 0.063559353
0.013202379 -0.012952347 0.063559346
-0.020252284 -0.0026556961 0.063559353
-0.017163809 -0.0078513464 0.063559346
0.018328199 -0.0075834189 0.063559353
0.021507304 -0.0015215676 0.063559353
-0.021589279 0.0047341548 0.063559346
0.0224305 0.0047341548 0.063559346
-0.020417845 0.012578069 0.063559353
-0.017705183 0.017794903 0.063559353
0.018322904 0.018801019 0.063559346
0.02136313 0.012645061 0.063739218
-0.013735311 0.02269534 0.063559353
-0.007217559 0.026545377 0.063600682
0.0042933621 0.027961381 0.063559346
0.012926406 0.023893669 0.063559353
-0.012973187 -0.012560925 0.074016243
-0.0067099393 -0.016073313 0.075479157
0.0053996914 -0.016783718 0.074386135
0.013212002 -0.012932162 0.074016243
-0.02030674 -0.0020584613 0.076237448
-0.017475815 -0.0071142283 0.076339997
0.018235523 -0.007496289 0.074016243
0.021500777 -0.001599875 0.074016236
-0.02180808 0.0048780572 0.076924786
0.022372622 0.0047341548 0.074016236
-0.020510955 0.012819665 0.074016243
-0.018135371 0.017585132 0.075991429
0.01822621 0.018657727 0.073955111
0.021252854 0.012669972 0.07386931
-0.013956381 0.022580704 0.076886758
-0.0073117702 0.026728934 0.074418426
0.0042933621 0.027776573 0.074016243
0.012914884 0.023906969 0.074016236
-0.012436665 -0.011740847 0.083394833
-0.0052830814 -0.014105277 0.084982499
0.005151087 -0.014174696 0.085177734
0.013035672 -0.01209022 0.083418302
-0.020217633 -0.00082603469 0.081340224
-0.015578463 -0.0049910434 0.085510202
-0.0049650497 -0.0051418729 0.089083716
0.0046975305 -0.0049582506 0.089285292
0.016046882 -0.0052010645 0.085797593
0.020967085 -0.0014466452 0.081983402
-0.020533657 0.0055834833 0.082974449
-0.015632628 0.0051912987 0.08834818
-0.0056970119 0.0043917359 0.089610614
0.0052142227 0.0038356679 0.089685872
0.016111413 0.0057713692 0.088030525
0.021521844 0.0056055626 0.082592838
-0.020184312 0.012262782 0.0818647
-0.015730904 0.015503155 0.08630117
-0.0096375756 0.018660692 0.089697897
0.0090289731 0.017232746 0.089737609
0.016028706 0.015418997 0.086420432
0.020996209 0.012036167 0.082149379
-0.012978384 0.021994783 0.084150374
-0.0056173275 0.024856251 0.085738577
0.0052599409 0.024710819 0.085803702
0.013048519 0.021955062 0.083899908
-0.013134789 0.0029913411 0.0900179
-0.0048960266 0.0091704121 0.090211548
0.0054999273 0.0088900998 0.090173237
0.011264626 0.008219786 0.090044372
-0.004627943 0.01516322 0.091050901
0.003849077 0.01503758 0.090998001
-0.0029683672 0.021000434 0.090550885
0.0021148436 0.020855198 0.090532117
