# .PCD v0.7 - Point Cloud Data file format
VERSION 0.7
FIELDS x y z
SIZE 4 4 4
TYPE F F F
COUNT 1 1 1
WIDTH 100
HEIGHT 1
VIEWPOINT 0 0 0 1 0 0 0
POINTS 100
DATA ascii
-0.0060383892 -0.021199923 0.0098333303
3.4473836e-05 -0.020554494 0.0098333303
-0.021357067 -0.012275043 0.0089033414
-0.015410423 -0.016350649 0.0081098452
-0.0055411253 -0.017723771 0.0064828591
0.0051905462 -0.015549827 0.0083002038
0.010024469 -0.012092259 0.0098333303
-0.024852004 -0.0058141495 0.0082512274
-0.015063504 -0.0053095724 0.0026455706
-0.0048238169 -0.0084472969 0.0022481782
0.0047911657 -0.0045400569 0.0026419424
0.012269691 -0.0059466483 0.0084276889
-0.026639555 0.0039222525 0.0075408244
-0.017495422 0.0058496865 0.0024030553
-0.0072529614 0.0024826117 0.00076330919
0.0059096911 0.0050199563 0.0022161037
0.013442257 0.0049117566 0.0081755333
-0.023431523 0.014791921 0.007058437
-0.014194451 0.014154663 0.0030293111
-0.0048238169 0.014917916 0.0024316737
0.0066926698 0.016114747 0.0061706584
0.011847834 0.013632702 0.0088519501
-0.015037079 0.022329042 0.0070823203
-0.0048238169 0.023030542 0.0064921249
0.003734909 0.021680787 0.0079848859
-0.012576268 -0.020868283 0.015732683
-0.0058704256 -0.021918988 0.01535675
0.00096721202 -0.021341991 0.015620776
-0.023217285 -0.013466517 0.015925452
-0.017370615 -0.018307135 0.015456526
0.0072533917 -0.017059699 0.015750574
0.011655625 -0.011496004 0.016426725
-0.030420303 -0.0023756772 0.018335339
-0.027827308 -0.0064863646 0.015111801
0.014005648 -0.0058473554 0.015446562
-0.031186519 0.0049484405 0.017624529
-0.029467292 0.0043719467 0.011555349
0.015648497 0.0049117561 0.01489612
-0.0305073 0.013008907 0.018740198
-0.027916152 0.016312946 0.015127325
0.0097510554 0.019486628 0.011429029
0.01343109 0.015865689 0.015857033
-0.023112338 0.02263806 0.016167587
-0.015790118 0.026763802 0.015496837
-0.0057499954 0.028439248 0.015730949
0.0053032036 0.024677418 0.015691351
0.010123644 0.021915771 0.019549912
-0.0055178581 -0.020545285 0.023020122
3.4473836e-05 -0.020178443 0.021979058
-0.022747651 -0.012772002 0.02496985
-0.015811393 -0.016811995 0.025568811
-0.0058940039 -0.018695971 0.027072994
0.0053045154 -0.015715284 0.025474047
0.011151521 -0.011434823 0.022788774
-0.030342931 -0.0023756772 0.023193629
-0.027409621 -0.0065289917 0.026060721
0.009565739 -0.0094392654 0.029017759
0.013423532 -0.0058553005 0.025464697
-0.031396501 0.0053041638 0.025214851
-0.029586751 5.3465366e-05 0.029266493
0.01585032 0.0050658956 0.025938248
-0.030973313 0.012593855 0.024894033
-0.028235324 0.01772741 0.026369568
0.01369367 0.01610986 0.025931837
-0.023757873 0.022910543 0.025756877
-0.015665662 0.027359597 0.02548054
-0.0059794188 0.028939078 0.025366832
0.005223453 0.024995059 0.025890017
0.010215541 0.021915771 0.023193629
-0.015109506 -0.012834954 0.033320818
-0.0059867054 -0.01402628 0.034213446
0.0019899446 -0.012916873 0.032963902
-0.023793885 -0.0048780181 0.033657707
-0.016961418 -0.0070594782 0.037596397
-0.0056335316 -0.0091377059 0.038918052
0.0053409082 -0.006253398 0.035663299
0.011627456 -0.0032257847 0.031865425
-0.030046649 0.007340902 0.031695634
-0.025696388 0.0047478303 0.036198776
-0.019398687 0.0012680385 0.039676234
0.0081041204 0.0046804096 0.037637252
0.012461606 0.0049117566 0.033130255
-0.024921594 0.01518249 0.034792017
-0.016554842 0.018126536 0.038426191
-0.004614681 0.019486628 0.039352704
0.0058177453 0.016450645 0.036449786
0.011912491 0.014051725 0.032562118
-0.022509968 0.021531897 0.032357436
-0.015476041 0.023876166 0.033865429
-0.0059457328 0.024494538 0.035408691
0.0026763077 0.023042548 0.03349733
-0.013884532 -0.0031089555 0.04111331
-0.0059286873 -0.0043722522 0.041866772
0.0009370952 -0.0023980339 0.041659988
-0.015746607 0.0052501261 0.04234894
-0.0063580223 0.0051228809 0.044069473
0.0022983828 0.0050407043 0.042590093
-0.015201266 0.013598838 0.041462809
-0.0058596171 0.014961491 0.041848492
0.0010147113 0.012507357 0.041229155
