# .PCD v0.7 - Point Cloud Data file format
VERSION 0.7
FIELDS x y z
SIZE 4 4 4
TYPE F F F
COUNT 1 1 1
WIDTH 1325
HEIGHT 1
VIEWPOINT 0 0 0 1 0 0 0
POINTS 1325
DATA ascii
-0.027943566 0.013814718 0.060931325
-0.027615294 0.014472291 0.052192122
-0.024702236 0.016684115 0.052192122
-0.027615294 0.014382213 0.055105194
-0.024702236 0.016618267 0.055105194
-0.024636135 0.01672779 0.052192122
-0.021789163 0.018637329 0.052192122
-0.020443752 0.019640863 0.052192122
-0.024543256 0.01672779 0.055105194
-0.021789163 0.018736243 0.055105194
-0.02064383 0.019640863 0.055105194
-0.018876091 0.020983577 0.052192122
-0.018876091 0.021108434 0.055105194
-0.027615294 0.014239043 0.05801826
-0.024702236 0.016431645 0.05801826
-0.027615294 0.014066666 0.060931325
-0.024702236 0.016303957 0.060931325
-0.024293318 0.01672779 0.05801826
-0.021789163 0.018727243 0.05801826
-0.02070637 0.019640863 0.05801826
-0.024150148 0.01672779 0.060931325
-0.021789163 0.018639565 0.060931325
-0.020553231 0.019640863 0.060931325
-0.018876091 0.021149755 0.05801826
-0.018876091 0.020981625 0.060931325
-0.016956985 0.022553921 0.052192122
-0.015963033 0.023321822 0.052192122
-0.013316989 0.025466993 0.052192122
-0.016969636 0.022553921 0.055105194
-0.015963033 0.023285925 0.055105194
-0.013257474 0.025466993 0.055105194
-0.016989365 0.022553921 0.05801826
-0.015963033 0.023296461 0.05801826
-0.013206348 0.025466993 0.05801826
-0.016862571 0.022553921 0.060931325
-0.015963033 0.023265481 0.060931325
-0.013263151 0.025466993 0.060931325
-0.010136902 0.027618989 0.040539853
-0.0091982633 0.028380066 0.040539853
-0.010136902 0.027638108 0.043452919
-0.0092293918 0.028380066 0.043452919
-0.01304996 0.025505438 0.046365991
-0.01304996 0.025666952 0.049279056
-0.010136902 0.027882129 0.046365991
-0.0095384121 0.028380066 0.046365991
-0.010136902 0.028096944 0.049279056
-0.0098016113 0.028380066 0.049279056
-0.01304996 0.025693417 0.052192122
-0.01304996 0.025648311 0.055105194
-0.010136902 0.028227001 0.052192122
-0.0099566877 0.028380066 0.052192122
-0.010136902 0.028231859 0.055105194
-0.00996086 0.028380066 0.055105194
-0.01304996 0.025598228 0.05801826
-0.01304996 0.025640905 0.060931325
-0.010136902 0.028145164 0.05801826
-0.0098580718 0.028380066 0.05801826
-0.010136902 0.028089538 0.060931325
-0.0097841769 0.028380066 0.060931325
-0.042180642 0.0024516881 0.06384439
-0.042180642 0.0025338829 0.066757455
-0.042180642 0.0025180578 0.069670528
-0.042180642 0.0024994314 0.072583593
-0.03926757 0.0048424453 0.06384439
-0.03896305 0.0050755292 0.06384439
-0.036354497 0.0070011616 0.06384439
-0.03926757 0.0047884881 0.066757455
-0.038870603 0.0050755292 0.066757455
-0.036354497 0.006875962 0.066757455
-0.034939066 0.007988587 0.06384439
-0.034774303 0.007988587 0.066757455
-0.033441439 0.0091129094 0.06384439
-0.031290129 0.01090166 0.06384439
-0.030528367 0.011560693 0.06384439
-0.033441439 0.0090006888 0.066757455
-0.03120932 0.01090166 0.066757455
-0.030528367 0.01152423 0.066757455
-0.03926757 0.0046706796 0.069670528
-0.038699403 0.0050755292 0.069670528
-0.036354497 0.0067669749 0.069670528
-0.03926757 0.0048205107 0.072583593
-0.038952693 0.0050755292 0.072583593
-0.036354497 0.0071128011 0.072583593
-0.034705937 0.007988587 0.069670528
-0.035173848 0.007988587 0.072583593
-0.033441439 0.0090092272 0.069670528
-0.03132464 0.01090166 0.069670528
-0.030528367 0.011660129 0.069670528
-0.033441439 0.0093512088 0.072583593
-0.031600595 0.01090166 0.072583593
-0.030528367 0.011835441 0.072583593
-0.042180642 0.0027014762 0.075496659
-0.042180642 0.0030665845 0.078409731
-0.042180642 0.0031808913 0.081322797
-0.042180642 0.0031416267 0.084235862
-0.039453641 0.0050755292 0.075496659
-0.03926757 0.0050755292 0.074416496
-0.03926757 0.005240038 0.075496659
-0.036354497 0.0076120496 0.075496659
-0.039808944 0.0050755292 0.078409731
-0.03926757 0.0055037588 0.078409731
-0.036354497 0.0077049583 0.078409731
-0.035832778 0.007988587 0.075496659
-0.035957813 0.007988587 0.078409731
-0.033441439 0.0097350478 0.075496659
-0.031837642 0.01090166 0.075496659
-0.030528367 0.011862427 0.075496659
-0.033441439 0.009796828 0.078409731
-0.031838328 0.01090166 0.078409731
-0.030528367 0.011797145 0.078409731
-0.039839894 0.0050755292 0.081322797
-0.03926757 0.005499661 0.081322797
-0.036354497 0.0075881183 0.081322797
-0.039652586 0.0050755292 0.084235862
-0.03926757 0.0053678453 0.084235862
-0.036354497 0.0075380504 0.084235862
-0.035780236 0.007988587 0.081322797
-0.035726562 0.007988587 0.084235862
-0.033441439 0.0096756369 0.081322797
-0.031742796 0.01090166 0.081322797
-0.030528367 0.011784673 0.081322797
-0.033441439 0.0097039342 0.084235862
-0.031866461 0.01090166 0.084235862
-0.030528367 0.01192607 0.084235862
-0.027860537 0.013814718 0.06384439
-0.027962729 0.013814718 0.066757455
-0.028116152 0.013814718 0.069670528
-0.028118834 0.013814718 0.072583593
-0.027615294 0.014012009 0.06384439
-0.024702236 0.016415104 0.06384439
-0.027615294 0.014102668 0.066757455
-0.024702236 0.016528785 0.066757455
-0.024323761 0.01672779 0.06384439
-0.021789163 0.018732145 0.06384439
-0.020515203 0.019640863 0.06384439
-0.024464235 0.01672779 0.066757455
-0.021789163 0.018865436 0.066757455
-0.020700425 0.019640863 0.066757455
-0.018876091 0.020829856 0.06384439
-0.018876091 0.020953506 0.066757455
-0.027615294 0.014211968 0.069670528
-0.024702236 0.016459092 0.069670528
-0.027615294 0.014192209 0.072583593
-0.024702236 0.016323283 0.072583593
-0.024353147 0.01672779 0.069670528
-0.021789163 0.018804222 0.069670528
-0.02076605 0.019640863 0.069670528
-0.024145648 0.01672779 0.072583593
-0.021789163 0.018635675 0.072583593
-0.020657465 0.019640863 0.072583593
-0.018876091 0.021202073 0.069670528
-0.018876091 0.021276355 0.072583593
-0.016696602 0.022553921 0.06384439
-0.015963033 0.023180529 0.06384439
-0.013273358 0.025466993 0.06384439
-0.016788661 0.022553921 0.066757455
-0.015963033 0.023222581 0.066757455
-0.013197973 0.025466993 0.066757455
-0.017180577 0.022553921 0.069670528
-0.015963033 0.023497373 0.069670528
-0.013353348 0.025466993 0.069670528
-0.017388999 0.022553921 0.072583593
-0.015963033 0.023698092 0.072583593
-0.013629019 0.025466993 0.072583593
-0.027856633 0.013814718 0.075496659
-0.027624473 0.013814718 0.078409731
-0.027709574 0.013814718 0.081322797
-0.027961954 0.013814718 0.084235862
-0.027615294 0.01398699 0.075496659
-0.024702236 0.016121939 0.075496659
-0.027615294 0.01382111 0.078409731
-0.024702236 0.015980303 0.078409731
-0.023890644 0.01672779 0.075496659
-0.021789163 0.018463448 0.075496659
-0.020474628 0.019640863 0.075496659
-0.023743287 0.01672779 0.078409731
-0.021789163 0.018373504 0.078409731
-0.020344317 0.019640863 0.078409731
-0.018876091 0.02111502 0.075496659
-0.018876091 0.020944551 0.078409731
-0.027615294 0.013881326 0.081322797
-0.024702236 0.016066134 0.081322797
-0.027615294 0.014059961 0.084235862
-0.024702236 0.016230866 0.084235862
-0.02384533 0.01672779 0.081322797
-0.021789163 0.018408626 0.081322797
-0.020325556 0.019640863 0.081322797
-0.024035871 0.01672779 0.084235862
-0.021789163 0.018470854 0.084235862
-0.020327002 0.019640863 0.084235862
-0.018876091 0.02088517 0.081322797
-0.018876091 0.020853758 0.084235862
-0.01723887 0.022553921 0.075496659
-0.015963033 0.02362372 0.075496659
-0.013695285 0.025466993 0.075496659
-0.017037436 0.022553921 0.078409731
-0.015963033 0.023485929 0.078409731
-0.013646185 0.025466993 0.078409731
-0.016934931 0.022553921 0.081322797
-0.015963033 0.023397893 0.081322797
-0.013583094 0.025466993 0.081322797
-0.016866416 0.022553921 0.084235862
-0.015963033 0.023330405 0.084235862
-0.013551787 0.025466993 0.084235862
-0.01304996 0.025646791 0.06384439
-0.01304996 0.025583148 0.066757455
-0.010136902 0.027984232 0.06384439
-0.0096315295 0.028380066 0.06384439
-0.010136902 0.027871817 0.066757455
-0.0094640106 0.028380066 0.066757455
-0.01304996 0.025690705 0.069670528
-0.01304996 0.025894284 0.072583593
-0.010136902 0.027939767 0.069670528
-0.0095604658 0.028380066 0.069670528
-0.010136902 0.028191417 0.072583593
-0.0099007338 0.028380066 0.072583593
-0.01304996 0.025987104 0.075496659
-0.01304996 0.025970235 0.078409731
-0.010166287 0.028380066 0.075496659
-0.010136902 0.028380066 0.075001188
-0.010136902 0.028404042 0.075496659
-0.010240003 0.028380066 0.078409731
-0.010136902 0.028465584 0.078409731
-0.01304996 0.025924444 0.081322797
-0.01304996 0.025911286 0.084235862
-0.010278225 0.028380066 0.081322797
-0.010136902 0.028502792 0.081322797
-0.010278463 0.028380066 0.084235862
-0.010136902 0.028502718 0.084235862
-0.042180642 0.0030819625 0.087148927
-0.042180642 0.0028760731 0.090061992
-0.042180642 0.0027138591 0.092975065
-0.042180642 0.002736792 0.095888138
-0.039408252 0.0050755292 0.087148927
-0.03926757 0.0051793605 0.087148927
-0.036354497 0.0073767453 0.087148927
-0.03926757 0.0050185621 0.090061992
-0.03926757 0.0050755292 0.088865787
-0.039188042 0.0050755292 0.090061992
-0.036354497 0.0071482658 0.090061992
-0.03554897 0.007988587 0.087148927
-0.035224736 0.007988587 0.090061992
-0.033441439 0.0096559525 0.087148927
-0.031862959 0.01090166 0.087148927
-0.030528367 0.011945277 0.087148927
-0.033441439 0.0093819201 0.090061992
-0.031583011 0.01090166 0.090061992
-0.030528367 0.011769459 0.090061992
-0.03926757 0.0050205439 0.092975065
-0.03919436 0.0050755292 0.092975065
-0.036354497 0.007169798 0.092975065
-0.039363608 0.0050755292 0.095888138
-0.03926757 0.0050755292 0.094227344
-0.03926757 0.0051541626 0.095888138
-0.036354497 0.0073934793 0.095888138
-0.03519702 0.007988587 0.092975065
-0.035500944 0.007988587 0.095888138
-0.033441439 0.0092992187 0.092975065
-0.0314731 0.01090166 0.092975065
-0.030528367 0.011693597 0.092975065
-0.033441439 0.0094658136 0.095888138
-0.031532556 0.01090166 0.095888138
-0.030528367 0.011695489 0.095888138
-0.042180642 0.0027741045 0.098801196
-0.042180642 0.0026397109 0.10171427
-0.042180642 0.0024884045 0.10462733
-0.042180642 0.0024524927 0.1075404
-0.039307728 0.0050755292 0.098801196
-0.03926757 0.0051083118 0.098801196
-0.036354497 0.0074009597 0.098801196
-0.03926757 0.0048475862 0.10171427
-0.03926757 0.0050755292 0.099208742
-0.038971081 0.0050755292 0.10171427
-0.036354497 0.0071384013 0.10171427
-0.035549864 0.007988587 0.098801196
-0.03529188 0.007988587 0.10171427
-0.033441439 0.0095420629 0.098801196
-0.031605288 0.01090166 0.098801196
-0.030528367 0.011741981 0.098801196
-0.033441439 0.0095327348 0.10171427
-0.031781569 0.01090166 0.10171427
-0.030528367 0.011938334 0.10171427
-0.03926757 0.0048337132 0.10462733
-0.03896755 0.0050755292 0.10462733
-0.036354497 0.0071739852 0.10462733
-0.03926757 0.0049853176 0.1075404
-0.039164007 0.0050755292 0.1075404
-0.036354497 0.0073919147 0.1075404
-0.035361364 0.007988587 0.10462733
-0.035585091 0.007988587 0.1075404
-0.033441439 0.0096832365 0.10462733
-0.032038957 0.01090166 0.10462733
-0.030528367 0.012169018 0.10462733
-0.033441439 0.0097163767 0.1075404
-0.03198342 0.01090166 0.1075404
-0.030528367 0.012105167 0.1075404
-0.028033435 0.013814718 0.087148927
-0.02794607 0.013814718 0.090061992
-0.02791965 0.013814718 0.092975065
-0.027962178 0.013814718 0.095888138
-0.027615294 0.014118537 0.087148927
-0.024702236 0.016360924 0.087148927
-0.027615294 0.014070421 0.090061992
-0.024702236 0.016433284 0.090061992
-0.024224013 0.01672779 0.087148927
-0.021789163 0.018629447 0.087148927
-0.020510495 0.019640863 0.087148927
-0.024339423 0.01672779 0.090061992
-0.021789163 0.018837452 0.090061992
-0.020816103 0.019640863 0.090061992
-0.018876091 0.021001488 0.087148927
-0.018876091 0.021283567 0.090061992
-0.027615294 0.014055356 0.092975065
-0.024702236 0.016472012 0.092975065
-0.027615294 0.01410231 0.095888138
-0.024702236 0.016566589 0.095888138
-0.024399802 0.01672779 0.092975065
-0.021789163 0.018978551 0.092975065
-0.020995602 0.019640863 0.092975065
-0.024512008 0.01672779 0.095888138
-0.021789163 0.019063145 0.095888138
-0.021074474 0.019640863 0.095888138
-0.018876091 0.021399334 0.092975065
-0.018876091 0.021371633 0.095888138
-0.01701127 0.022553921 0.087148927
-0.015963033 0.023434162 0.087148927
-0.013630569 0.025466993 0.087148927
-0.017317548 0.022553921 0.090061992
-0.015963033 0.023642808 0.090061992
-0.013735756 0.025466993 0.090061992
-0.01742214 0.022553921 0.092975065
-0.015963033 0.023697793 0.092975065
-0.013681412 0.025466993 0.092975065
-0.017323971 0.022553921 0.095888138
-0.015963033 0.023609191 0.095888138
-0.013534397 0.025466993 0.095888138
-0.028104201 0.013814718 0.098801196
-0.028328866 0.013814718 0.10171427
-0.028492197 0.013814718 0.10462733
-0.028441429 0.013814718 0.1075404
-0.027615294 0.014239401 0.098801196
-0.024702236 0.016613692 0.098801196
-0.027615294 0.014410466 0.10171427
-0.024702236 0.016618177 0.10171427
-0.02455233 0.01672779 0.098801196
-0.021789163 0.018945545 0.098801196
-0.020927742 0.019640863 0.098801196
-0.024542585 0.01672779 0.10171427
-0.021789163 0.01879555 0.10171427
-0.020759508 0.019640863 0.10171427
-0.018876091 0.021270797 0.098801196
-0.018876091 0.021238104 0.10171427
-0.027615294 0.01450108 0.10462733
-0.024702236 0.016678095 0.10462733
-0.027615294 0.014483899 0.1075404
-0.024759606 0.01672779 0.1075404
-0.024702236 0.01672779 0.10619943
-0.024702236 0.016769126 0.1075404
-0.024630517 0.01672779 0.10462733
-0.021789163 0.018831357 0.10462733
-0.020774797 0.019640863 0.10462733
-0.021789163 0.018871427 0.1075404
-0.020727381 0.019640863 0.1075404
-0.018876091 0.02127023 0.10462733
-0.018876091 0.021129623 0.1075404
-0.017198771 0.022553921 0.098801196
-0.015963033 0.023521602 0.098801196
-0.013526738 0.025466993 0.098801196
-0.01724188 0.022553921 0.10171427
-0.015963033 0.02356334 0.10171427
-0.01359795 0.025466993 0.10171427
-0.017320231 0.022553921 0.10462733
-0.015963033 0.023619175 0.10462733
-0.013599336 0.025466993 0.10462733
-0.017156661 0.022553921 0.1075404
-0.015963033 0.023528561 0.1075404
-0.013562754 0.025466993 0.1075404
-0.01304996 0.025972694 0.087148927
-0.01304996 0.02603589 0.090061992
-0.010218427 0.028380066 0.087148927
-0.010136902 0.028446227 0.087148927
-0.010236919 0.028380066 0.090061992
-0.010136902 0.02846016 0.090061992
-0.01304996 0.025959477 0.092975065
-0.01304996 0.025827676 0.095888138
-0.010189354 0.028380066 0.092975065
-0.010136902 0.02842547 0.092975065
-0.010136902 0.028270453 0.095888138
-0.010136902 0.028380066 0.09386687
-0.010016367 0.028380066 0.095888138
-0.01304996 0.025837749 0.098801196
-0.01304996 0.025904953 0.10171427
-0.010136902 0.028237283 0.098801196
-0.0099716932 0.028380066 0.098801196
-0.010136902 0.028281361 0.10171427
-0.010015205 0.028380066 0.10171427
-0.01304996 0.025896028 0.10462733
-0.01304996 0.025871903 0.1075404
-0.010136902 0.028235227 0.10462733
-0.0099515915 0.028380066 0.10462733
-0.010136902 0.028158322 0.1075404
-0.0098385215 0.028380066 0.1075404
-0.042180642 0.0024362206 0.11045347
-0.042180642 0.0025443733 0.11336653
-0.042180642 0.0028591007 0.1162796
-0.042180642 0.0030710399 0.11919266
-0.03926757 0.0049872845 0.11045347
-0.039165631 0.0050755292 0.11045347
-0.036354497 0.0073915571 0.11045347
-0.039338946 0.0050755292 0.11336653
-0.03926757 0.0050755292 0.1126938
-0.03926757 0.005136013 0.11336653
-0.036354497 0.0074421167 0.11336653
-0.035559908 0.007988587 0.11045347
-0.035587326 0.007988587 0.11336653
-0.033441439 0.0095733553 0.11045347
-0.031711489 0.01090166 0.11045347
-0.030528367 0.011869535 0.11045347
-0.033441439 0.0095451623 0.11336653
-0.031655982 0.01090166 0.11336653
-0.030528367 0.011811748 0.11336653
-0.039755136 0.0050755292 0.1162796
-0.03926757 0.0054954439 0.1162796
-0.036354497 0.0077283531 0.1162796
-0.039973527 0.0050755292 0.11919266
-0.03926757 0.0056879967 0.11919266
-0.036354497 0.0079234093 0.11919266
-0.035965592 0.007988587 0.1162796
-0.036258578 0.007988587 0.11919266
-0.033441439 0.0097334981 0.1162796
-0.031821087 0.01090166 0.1162796
-0.030528367 0.011904091 0.1162796
-0.033441439 0.0099555701 0.11919266
-0.032091275 0.01090166 0.11919266
-0.030528367 0.012064755 0.11919266
-0.042180642 0.0028724372 0.12210573
-0.042180642 0.0025698841 0.12501881
-0.042180642 0.0023449063 0.12793186
-0.039559022 0.0050755292 0.12210573
-0.03926757 0.0053194463 0.12210573
-0.036354497 0.0076726377 0.12210573
-0.03926757 0.0047171712 0.12501881
-0.03926757 0.0050755292 0.1231741
-0.038807258 0.0050755292 0.12501881
-0.036354497 0.0070864856 0.12501881
-0.035934389 0.007988587 0.12210573
-0.035256863 0.007988587 0.12501881
-0.033441439 0.0098974705 0.12210573
-0.032111898 0.01090166 0.12210573
-0.030528367 0.012096182 0.12210573
-0.033441439 0.0094911754 0.12501881
-0.031708091 0.01090166 0.12501881
-0.030528367 0.011835799 0.12501881
-0.03926757 0.0044089258 0.12793186
-0.03839688 0.0050755292 0.12793186
-0.036354497 0.0067143291 0.12793186
-0.03926757 0.0042379797 0.13084494
-0.038223058 0.0050755292 0.13084494
-0.036354497 0.0066237748 0.13084494
-0.034800187 0.007988587 0.12793186
-0.034752175 0.007988587 0.13084494
-0.033441439 0.0091356635 0.12793186
-0.031355679 0.01090166 0.12793186
-0.030528367 0.01159066 0.12793186
-0.033441439 0.0091504008 0.13084494
-0.031419605 0.01090166 0.13084494
-0.030528367 0.011649951 0.13084494
-0.028268829 0.013814718 0.11045347
-0.028175011 0.013814718 0.11336653
-0.028192669 0.013814718 0.1162796
-0.02827917 0.013814718 0.11919266
-0.027615294 0.014385223 0.11045347
-0.024785459 0.01672779 0.11045347
-0.024702236 0.016789526 0.11045347
-0.027615294 0.014290377 0.11336653
-0.024702236 0.016625643 0.11336653
-0.024702236 0.01672779 0.11200663
-0.021789163 0.018879861 0.11045347
-0.020684764 0.019640863 0.11045347
-0.024563283 0.01672779 0.11336653
-0.021789163 0.018821493 0.11336653
-0.020704597 0.019640863 0.11336653
-0.018876091 0.021010965 0.11045347
-0.018876091 0.02108641 0.11336653
-0.027615294 0.014271796 0.1162796
-0.024702236 0.016438097 0.1162796
-0.027615294 0.01431714 0.11919266
-0.024702236 0.016417354 0.11919266
-0.024292395 0.01672779 0.1162796
-0.021789163 0.018693373 0.1162796
-0.020643622 0.019640863 0.1162796
-0.024250314 0.01672779 0.11919266
-0.021789163 0.018616557 0.11919266
-0.020526707 0.019640863 0.11919266
-0.018876091 0.021116287 0.1162796
-0.018876091 0.021002159 0.11919266
-0.016973853 0.022553921 0.11045347
-0.015963033 0.02338405 0.11045347
-0.013405934 0.025466993 0.11045347
-0.017026454 0.022553921 0.11336653
-0.015963033 0.023385257 0.11336653
-0.013333738 0.025466993 0.11336653
-0.017097682 0.022553921 0.1162796
-0.015963033 0.023464322 0.1162796
-0.013512373 0.025466993 0.1162796
-0.017007113 0.022553921 0.11919266
-0.015963033 0.023437679 0.11919266
-0.013569191 0.025466993 0.11919266
-0.028226107 0.013814718 0.12210573
-0.027985618 0.013814718 0.12501881
-0.027887508 0.013814718 0.12793186
-0.028039053 0.013814718 0.13084494
-0.027615294 0.01426512 0.12210573
-0.024702236 0.016407594 0.12210573
-0.027615294 0.014100492 0.12501881
-0.024702236 0.016378284 0.12501881
-0.024244219 0.01672779 0.12210573
-0.021789163 0.01856415 0.12210573
-0.02041626 0.019640863 0.12210573
-0.024231747 0.01672779 0.12501881
-0.021789163 0.018596247 0.12501881
-0.020459801 0.019640863 0.12501881
-0.018876091 0.020914391 0.12210573
-0.018876091 0.020961195 0.12501881
-0.027615294 0.014044836 0.12793186
-0.024702236 0.016448736 0.12793186
-0.027615294 0.014191657 0.13084494
-0.024702236 0.016584501 0.13084494
-0.024329096 0.01672779 0.12793186
-0.021789163 0.018654779 0.12793186
-0.020529419 0.019640863 0.12793186
-0.024496347 0.01672779 0.13084494
-0.021789163 0.018641442 0.13084494
-0.020467579 0.019640863 0.13084494
-0.018876091 0.021004379 0.12793186
-0.018876091 0.020942092 0.13084494
-0.016957387 0.022553921 0.12210573
-0.015963033 0.023406476 0.12210573
-0.013531327 0.025466993 0.12210573
-0.016991094 0.022553921 0.12501881
-0.015963033 0.023407012 0.12501881
-0.01350753 0.025466993 0.12501881
-0.016937733 0.022553921 0.12793186
-0.015963033 0.023301706 0.12793186
-0.013292938 0.025466993 0.12793186
-0.016831577 0.022553921 0.13084494
-0.015963033 0.023193121 0.13084494
-0.01304996 0.025444061 0.13084494
-0.01304996 0.025466993 0.1304457
-0.01302202 0.025466993 0.13084494
-0.01304996 0.025750145 0.11045347
-0.01304996 0.025692046 0.11336653
-0.010136902 0.028067261 0.11045347
-0.0097242147 0.028380066 0.11045347
-0.010136902 0.028082296 0.11336653
-0.0097665489 0.028380066 0.11336653
-0.01304996 0.025844753 0.1162796
-0.01304996 0.025899827 0.11919266
-0.010136902 0.028293073 0.1162796
-0.010030076 0.028380066 0.1162796
-0.010171831 0.028380066 0.11919266
-0.010136902 0.028380066 0.11767738
-0.010136902 0.028409258 0.11919266
-0.01304996 0.025872394 0.12210573
-0.01304996 0.025862262 0.12501881
-0.010162249 0.028380066 0.12210573
-0.010136902 0.028401002 0.12210573
-0.010169238 0.028380066 0.12501881
-0.010136902 0.028406218 0.12501881
-0.01304996 0.025676727 0.12793186
-0.010136902 0.02829431 0.12793186
-0.010136902 0.028380066 0.12636361
-0.01003617 0.028380066 0.12793186
-0.010136902 0.028026789 0.13084494
-0.0097329319 0.028380066 0.13084494
-0.042180642 0.0021921545 0.13667107
-0.042180642 0.0025397986 0.13958414
-0.042180642 0.0028758943 0.14249721
-0.03926757 0.0042144209 0.13375801
-0.038194031 0.0050755292 0.13375801
-0.036354497 0.0066433996 0.13375801
-0.03926757 0.0044235289 0.13667107
-0.038434193 0.0050755292 0.13667107
-0.036354497 0.0067704618 0.13667107
-0.034865707 0.007988587 0.13375801
-0.034916952 0.007988587 0.13667107
-0.033441439 0.0093137473 0.13375801
-0.03162156 0.01090166 0.13375801
-0.030528367 0.011808917 0.13375801
-0.033441439 0.0093008131 0.13667107
-0.03160046 0.01090166 0.13667107
-0.030528367 0.011784539 0.13667107
-0.03926757 0.0047106147 0.13958414
-0.038764939 0.0050755292 0.13958414
-0.036354497 0.0068295598 0.13958414
-0.03926757 0.0049822032 0.14249721
-0.039122149 0.0050755292 0.14249721
-0.036354497 0.0068380535 0.14249721
-0.034773201 0.007988587 0.13958414
-0.03463012 0.007988587 0.14249721
-0.033441439 0.0090482086 0.13958414
-0.031268761 0.01090166 0.13958414
-0.030528367 0.011517003 0.13958414
-0.033441439 0.0088811815 0.14249721
-0.03100577 0.01090166 0.14249721
-0.030528367 0.011296466 0.14249721
-0.042180642 0.0029554367 0.14541027
-0.042180642 0.002635777 0.14832334
-0.039465651 0.0050755292 0.14541027
-0.03926757 0.0050755292 0.14355409
-0.03926757 0.005204469 0.14541027
-0.036354497 0.0070216954 0.14541027
-0.039372593 0.0050755292 0.14832334
-0.03926757 0.005153954 0.14832334
-0.036354497 0.0071696192 0.14832334
-0.034894615 0.007988587 0.14541027
-0.035171896 0.007988587 0.14832334
-0.033441439 0.0091179013 0.14541027
-0.031306207 0.01090166 0.14541027
-0.030528367 0.011533439 0.14541027
-0.033441439 0.0093709528 0.14832334
-0.031628028 0.01090166 0.14832334
-0.030528367 0.011782125 0.14832334
-0.03926757 0.0045651346 0.1512364
-0.03926757 0.0050755292 0.14895447
-0.038649932 0.0050755292 0.1512364
-0.036354497 0.0068610758 0.1512364
-0.034896493 0.007988587 0.1512364
-0.033441439 0.0091910958 0.1512364
-0.03137894 0.01090166 0.1512364
-0.030528367 0.011560932 0.1512364
-0.028207734 0.013814718 0.13375801
-0.028047889 0.013814718 0.13667107
-0.027669534 0.013814718 0.13958414
-0.027615294 0.013723031 0.14249721
-0.027615294 0.013814718 0.14011708
-0.027503282 0.013814718 0.14249721
-0.027615294 0.014337838 0.13375801
-0.024702236 0.016673446 0.13375801
-0.027615294 0.014166921 0.13667107
-0.024702236 0.016522273 0.13667107
-0.024621993 0.01672779 0.13375801
-0.021789163 0.018655479 0.13375801
-0.020422801 0.019640863 0.13375801
-0.024425581 0.01672779 0.13667107
-0.021789163 0.018665835 0.13667107
-0.020481676 0.019640863 0.13667107
-0.018876091 0.020890862 0.13375801
-0.018876091 0.02095975 0.13667107
-0.027615294 0.013857171 0.13958414
-0.024702236 0.016260937 0.13958414
-0.024702236 0.016191572 0.14249721
-0.024127573 0.01672779 0.13958414
-0.021789163 0.01861155 0.13958414
-0.0205051 0.019640863 0.13958414
-0.024058774 0.01672779 0.14249721
-0.021789163 0.018598378 0.14249721
-0.020452216 0.019640863 0.14249721
-0.018876091 0.020994738 0.13958414
-0.018876091 0.020857468 0.14249721
-0.016866729 0.022553921 0.13375801
-0.015963033 0.02325733 0.13375801
-0.01304996 0.02544862 0.13375801
-0.01699616 0.022553921 0.13667107
-0.015963033 0.023381144 0.13667107
-0.013168126 0.025466993 0.13667107
-0.01304996 0.025466993 0.13414428
-0.013025433 0.025466993 0.13375801
-0.016947851 0.022553921 0.13958414
-0.015963033 0.023294032 0.13958414
-0.01304996 0.025460541 0.13958414
-0.01304996 0.025466993 0.1395067
-0.016637817 0.022553921 0.14249721
-0.015963033 0.023042277 0.14249721
-0.01304996 0.025215477 0.14249721
-0.013041183 0.025466993 0.13958414
-0.012718141 0.025466993 0.14249721
-0.027693987 0.013814718 0.14541027
-0.027615294 0.013814718 0.14476515
-0.027836442 0.013814718 0.14832334
-0.027615294 0.013743758 0.1512364
-0.027615294 0.013814718 0.15063776
-0.027519658 0.013814718 0.1512364
-0.027615294 0.013876691 0.14541027
-0.024702236 0.016278252 0.14541027
-0.027615294 0.013977706 0.14832334
-0.024702236 0.016314894 0.14832334
-0.024163663 0.01672779 0.14541027
-0.021789163 0.018642366 0.14541027
-0.020423368 0.019640863 0.14541027
-0.024195254 0.01672779 0.14832334
-0.021789163 0.018644542 0.14832334
-0.02045089 0.019640863 0.14832334
-0.018876091 0.020742133 0.14541027
-0.018876091 0.02078262 0.14832334
-0.024702236 0.016137272 0.1512364
-0.02401343 0.01672779 0.1512364
-0.021789163 0.018641055 0.1512364
-0.020541146 0.019640863 0.1512364
-0.018876091 0.02087985 0.1512364
-0.016415656 0.022553921 0.14541027
-0.015963033 0.022891209 0.14541027
-0.01304996 0.025121436 0.14541027
-0.016475365 0.022553921 0.14832334
-0.015963033 0.022945881 0.14832334
-0.01304996 0.025275499 0.14832334
-0.012594089 0.025466993 0.14541027
-0.01280354 0.025466993 0.14832334
-0.016559377 0.022553921 0.1512364
-0.015963033 0.023004353 0.1512364
-0.01304996 0.025431678 0.1512364
-0.013007775 0.025466993 0.1512364
-0.01304996 0.025550798 0.13667107
-0.010136902 0.027859136 0.13375801
-0.0095171928 0.028380066 0.13375801
-0.010136902 0.027816102 0.13667107
-0.0094406754 0.028380066 0.13667107
-0.010136902 0.027716666 0.13958414
-0.0092667937 0.028380066 0.13958414
-0.010136902 0.027497426 0.14249721
-0.0089632273 0.028380066 0.14249721
-0.010136902 0.027399033 0.14541027
-0.0088695139 0.028380066 0.14541027
-0.010136902 0.027592301 0.14832334
-0.0091414154 0.028380066 0.14832334
-0.010136902 0.02785635 0.1512364
-0.009474799 0.028380066 0.1512364
-0.03926757 0.0033880472 0.15706255
-0.037403256 0.0050755292 0.15706255
-0.036354497 0.0060258657 0.15706255
-0.03926757 0.0034771562 0.1599756
-0.037361011 0.0050755292 0.1599756
-0.036354497 0.005941093 0.1599756
-0.034167007 0.007988587 0.15706255
-0.034038499 0.007988587 0.1599756
-0.033441439 0.0086243749 0.15706255
-0.030855313 0.01090166 0.15706255
-0.030528367 0.011183962 0.15706255
-0.033441439 0.0085143447 0.1599756
-0.03073439 0.01090166 0.1599756
-0.030528367 0.011079282 0.1599756
-0.03926757 0.0038821101 0.16288868
-0.037676215 0.0050755292 0.16288868
-0.036354497 0.0060909539 0.16288868
-0.03926757 0.0043878555 0.16580173
-0.038319632 0.0050755292 0.16580173
-0.036354497 0.0065092146 0.16580173
-0.034053355 0.007988587 0.16288868
-0.034440607 0.007988587 0.16580173
-0.033441439 0.008507967 0.16288868
-0.030603394 0.01090166 0.16288868
-0.030528367 0.010962605 0.16288868
-0.033441439 0.008788839 0.16580173
-0.030728638 0.01090166 0.16580173
-0.030528367 0.011048079 0.16580173
-0.042180642 0.0022817999 0.16871481
-0.042180642 0.0024874955 0.17162788
-0.042180642 0.0026254654 0.17454094
-0.042180642 0.0025972277 0.17745401
-0.03926757 0.0047022551 0.16871481
-0.038757935 0.0050755292 0.16871481
-0.036354497 0.0068667233 0.16871481
-0.03926757 0.0048300475 0.17162788
-0.038917094 0.0050755292 0.17162788
-0.036354497 0.0069261491 0.17162788
-0.034900442 0.007988587 0.16871481
-0.034959674 0.007988587 0.17162788
-0.033441439 0.0091393739 0.16871481
-0.031100363 0.01090166 0.16871481
-0.030528367 0.011302307 0.16871481
-0.033441439 0.0091880858 0.17162788
-0.031229496 0.01090166 0.17162788
-0.030528367 0.011419609 0.17162788
-0.03926757 0.0049210191 0.17454094
-0.039042488 0.0050755292 0.17454094
-0.036354497 0.0069559515 0.17454094
-0.03926757 0.0049952716 0.17745401
-0.039159551 0.0050755292 0.17745401
-0.036354497 0.0071287751 0.17745401
-0.034942478 0.007988587 0.17454094
-0.035149559 0.007988587 0.17745401
-0.033441439 0.0091441721 0.17454094
-0.031211957 0.01090166 0.17454094
-0.030528367 0.011434168 0.17454094
-0.033441439 0.0092519522 0.17745401
-0.031299487 0.01090166 0.17745401
-0.030528367 0.01149793 0.17745401
-0.027615294 0.013614789 0.15706255
-0.027355894 0.013814718 0.15706255
-0.027615294 0.013585985 0.1599756
-0.02733399 0.013814718 0.1599756
-0.027615294 0.013379782 0.16288868
-0.027070105 0.013814718 0.16288868
-0.027615294 0.013242051 0.16580173
-0.026827484 0.013814718 0.16580173
-0.024702236 0.015939012 0.15706255
-0.024702236 0.015917778 0.1599756
-0.023752764 0.01672779 0.15706255
-0.021789163 0.018413961 0.15706255
-0.020264208 0.019640863 0.15706255
-0.023650631 0.01672779 0.1599756
-0.021789163 0.018231139 0.1599756
-0.020029768 0.019640863 0.1599756
-0.018876091 0.020698026 0.15706255
-0.018876091 0.020548508 0.1599756
-0.024702236 0.015674442 0.16288868
-0.024702236 0.015387669 0.16580173
-0.023347095 0.01672779 0.16288868
-0.021789163 0.01802735 0.16288868
-0.019883052 0.019640863 0.16288868
-0.023009524 0.01672779 0.16580173
-0.021789163 0.017806858 0.16580173
-0.019788072 0.019640863 0.16580173
-0.018876091 0.02047427 0.16288868
-0.018876091 0.020443022 0.16580173
-0.016437352 0.022553921 0.15706255
-0.015963033 0.022920445 0.15706255
-0.01304996 0.025363386 0.15706255
-0.016365379 0.022553921 0.1599756
-0.015963033 0.022874564 0.1599756
-0.01304996 0.025292799 0.1599756
-0.012928694 0.025466993 0.15706255
-0.012839496 0.025466993 0.1599756
-0.016395241 0.022553921 0.16288868
-0.015963033 0.022913054 0.16288868
-0.01304996 0.025331929 0.16288868
-0.016396791 0.022553921 0.16580173
-0.015963033 0.022914052 0.16580173
-0.01304996 0.025368452 0.16580173
-0.012882262 0.025466993 0.16288868
-0.012930378 0.025466993 0.16580173
-0.027615294 0.013381317 0.16871481
-0.026984647 0.013814718 0.16871481
-0.027615294 0.013601437 0.17162788
-0.027319953 0.013814718 0.17162788
-0.027615294 0.013751939 0.17454094
-0.027534112 0.013814718 0.17454094
-0.027615294 0.013793528 0.17745401
-0.027587831 0.013814718 0.17745401
-0.024702236 0.015440941 0.16871481
-0.024702236 0.015740961 0.17162788
-0.023016065 0.01672779 0.16871481
-0.021789163 0.0177733 0.16871481
-0.019728631 0.019640863 0.16871481
-0.02336134 0.01672779 0.17162788
-0.021789163 0.017969638 0.17162788
-0.019818038 0.019640863 0.17162788
-0.018876091 0.020394981 0.16871481
-0.018876091 0.02046147 0.17162788
-0.024702236 0.016010478 0.17454094
-0.024702236 0.0161383 0.17745401
-0.023738652 0.01672779 0.17454094
-0.021789163 0.018262893 0.17454094
-0.020128623 0.019640863 0.17454094
-0.023958102 0.01672779 0.17745401
-0.021789163 0.018507764 0.17745401
-0.02041018 0.019640863 0.17745401
-0.018876091 0.020716175 0.17454094
-0.018876091 0.020897806 0.17745401
-0.016343936 0.022553921 0.16871481
-0.015963033 0.022870794 0.16871481
-0.01304996 0.025371492 0.16871481
-0.016476989 0.022553921 0.17162788
-0.015963033 0.022990853 0.17162788
-0.01304996 0.02541557 0.17162788
-0.012936309 0.025466993 0.16871481
-0.012984082 0.025466993 0.17162788
-0.016737238 0.022553921 0.17454094
-0.015963033 0.023197532 0.17454094
-0.013061792 0.025466993 0.17454094
-0.01304996 0.025466993 0.17411506
-0.016856402 0.022553921 0.17745401
-0.015963033 0.023283973 0.17745401
-0.013138413 0.025466993 0.17745401
-0.010136902 0.027855635 0.15706255
-0.0094816685 0.028380066 0.15706255
-0.010136902 0.02778247 0.1599756
-0.0094159096 0.028380066 0.1599756
-0.010136902 0.027814776 0.16288868
-0.0094657987 0.028380066 0.16288868
-0.010136902 0.027880117 0.16580173
-0.0095385313 0.028380066 0.16580173
-0.010136902 0.027813196 0.16871481
-0.0094091147 0.028380066 0.16871481
-0.010136902 0.027668148 0.17162788
-0.0091475248 0.028380066 0.17162788
-0.01304996 0.025475502 0.17454094
-0.01304996 0.025529429 0.17745401
-0.010136902 0.027614146 0.17454094
-0.0090718418 0.028380066 0.17454094
-0.010136902 0.027651101 0.17745401
-0.0091335773 0.028380066 0.17745401
-0.042180642 0.0022818446 0.18036708
-0.03926757 0.0049417317 0.18036708
-0.039107963 0.0050755292 0.18036708
-0.036354497 0.0072886795 0.18036708
-0.03926757 0.0047438592 0.18328014
-0.03889662 0.0050755292 0.18328014
-0.036354497 0.0072593242 0.18328014
-0.03540273 0.007988587 0.18036708
-0.035412639 0.007988587 0.18328014
-0.033441439 0.0094010681 0.18036708
-0.031353563 0.01090166 0.18036708
-0.030528367 0.011499047 0.18036708
-0.033441439 0.0094113201 0.18328014
-0.031259283 0.01090166 0.18328014
-0.030528367 0.011397213 0.18328014
-0.03926757 0.0045782924 0.18619321
-0.038704157 0.0050755292 0.18619321
-0.036354497 0.007084921 0.18619321
-0.03926757 0.0044273734 0.18910629
-0.038522154 0.0050755292 0.18910629
-0.036354497 0.0068753064 0.18910629
-0.035197809 0.007988587 0.18619321
-0.034917042 0.007988587 0.18910629
-0.033441439 0.0092839003 0.18619321
-0.031109855 0.01090166 0.18619321
-0.030528367 0.011286989 0.18619321
-0.033441439 0.0091045499 0.18910629
-0.030949518 0.01090166 0.18910629
-0.030528367 0.011187941 0.18910629
-0.03926757 0.0043300092 0.19201934
-0.038438901 0.0050755292 0.19201934
-0.036354497 0.0067881942 0.19201934
-0.03926757 0.0044505298 0.19493242
-0.03858164 0.0050755292 0.19493242
-0.036354497 0.0068953186 0.19493242
-0.034758255 0.007988587 0.19201934
-0.034841567 0.007988587 0.19493242
-0.033441439 0.0089661777 0.19201934
-0.030809954 0.01090166 0.19201934
-0.030528367 0.011103064 0.19201934
-0.033441439 0.0089832246 0.19493242
-0.030798241 0.01090166 0.19493242
-0.030528367 0.011095941 0.19493242
-0.03926757 0.0045910627 0.19784547
-0.038690224 0.0050755292 0.19784547
-0.036354497 0.0069040805 0.19784547
-0.03926757 0.0046242476 0.20075855
-0.03866455 0.0050755292 0.20075855
-0.036354497 0.0067438185 0.20075855
-0.034855634 0.007988587 0.19784547
-0.034624845 0.007988587 0.20075855
-0.033441439 0.009004429 0.19784547
-0.030843213 0.01090166 0.19784547
-0.030528367 0.011128768 0.19784547
-0.033441439 0.0088445395 0.20075855
-0.030709222 0.01090166 0.20075855
-0.030528367 0.011040226 0.20075855
-0.027615294 0.013742626 0.18036708
-0.027522847 0.013814718 0.18036708
-0.027615294 0.013610408 0.18328014
-0.027362853 0.013814718 0.18328014
-0.027615294 0.013420537 0.18619321
-0.027125224 0.013814718 0.18619321
-0.027615294 0.013313368 0.18910629
-0.026977137 0.013814718 0.18910629
-0.024702236 0.016194105 0.18036708
-0.024702236 0.016173705 0.18328014
-0.024079919 0.01672779 0.18036708
-0.021789163 0.018699631 0.18036708
-0.020630851 0.019640863 0.18036708
-0.024097458 0.01672779 0.18328014
-0.021789163 0.018826276 0.18328014
-0.020803079 0.019640863 0.18328014
-0.018876091 0.02101171 0.18036708
-0.018876091 0.021098524 0.18328014
-0.024702236 0.016026884 0.18619321
-0.024702236 0.015844524 0.18910629
-0.023973137 0.01672779 0.18619321
-0.021789163 0.018786192 0.18619321
-0.020782992 0.019640863 0.18619321
-0.023773655 0.01672779 0.18910629
-0.021789163 0.018595755 0.18910629
-0.020586386 0.019640863 0.18910629
-0.018876091 0.021088988 0.18619321
-0.018876091 0.020992488 0.18910629
-0.016879886 0.022553921 0.18036708
-0.015963033 0.02327095 0.18036708
-0.013125658 0.025466993 0.18036708
-0.016860336 0.022553921 0.18328014
-0.015963033 0.023212835 0.18328014
-0.01304996 0.025440231 0.18328014
-0.01304996 0.025466993 0.18245082
-0.013014108 0.025466993 0.18328014
-0.016803071 0.022553921 0.18619321
-0.015963033 0.023149595 0.18619321
-0.01304996 0.025324047 0.18619321
-0.016712844 0.022553921 0.18910629
-0.015963033 0.02306734 0.18910629
-0.01304996 0.025167495 0.18910629
-0.012855858 0.025466993 0.18619321
-0.012641162 0.025466993 0.18910629
-0.027615294 0.01331906 0.19201934
-0.02697967 0.013814718 0.19201934
-0.027615294 0.013367206 0.19493242
-0.0270565 0.013814718 0.19493242
-0.027615294 0.013430968 0.19784547
-0.027152255 0.013814718 0.19784547
-0.027615294 0.013451353 0.20075855
-0.027187973 0.013814718 0.20075855
-0.024702236 0.015721977 0.19201934
-0.024702236 0.015752256 0.19493242
-0.023554206 0.01672779 0.19201934
-0.021789163 0.018278316 0.19201934
-0.020169497 0.019640863 0.19201934
-0.023494899 0.01672779 0.19493242
-0.021789163 0.018069044 0.19493242
-0.019765824 0.019640863 0.19493242
-0.018876091 0.020689815 0.19201934
-0.018876091 0.020354807 0.19493242
-0.024702236 0.015903428 0.19784547
-0.024702236 0.015984863 0.20075855
-0.023677349 0.01672779 0.19784547
-0.021789163 0.018148348 0.19784547
-0.019725397 0.019640863 0.19784547
-0.023797512 0.01672779 0.20075855
-0.021789163 0.01823549 0.20075855
-0.019744411 0.019640863 0.20075855
-0.018876091 0.020275071 0.19784547
-0.018876091 0.020230249 0.20075855
-0.016480461 0.022553921 0.19201934
-0.015963033 0.022928327 0.19201934
-0.01304996 0.025089815 0.19201934
-0.016297281 0.022553921 0.19493242
-0.015963033 0.022833586 0.19493242
-0.01304996 0.025178492 0.19493242
-0.012547597 0.025466993 0.19201934
-0.012670204 0.025466993 0.19493242
-0.016157001 0.022553921 0.19784547
-0.015963033 0.022721484 0.19784547
-0.01304996 0.025157824 0.19784547
-0.015963033 0.022501171 0.20075855
-0.015963033 0.022553921 0.20011771
-0.015898973 0.022553921 0.20075855
-0.01304996 0.024990067 0.20075855
-0.012652844 0.025466993 0.19784547
-0.012479022 0.025466993 0.20075855
-0.01304996 0.025522307 0.18036708
-0.010136902 0.027704015 0.18036708
-0.0092133582 0.028380066 0.18036708
-0.010136902 0.027676463 0.18328014
-0.00917992 0.028380066 0.18328014
-0.010136902 0.027523264 0.18619321
-0.0089673251 0.028380066 0.18619321
-0.010136902 0.027363032 0.18910629
-0.0087752789 0.028380066 0.18910629
-0.010136902 0.027353629 0.19201934
-0.0088266283 0.028380066 0.19201934
-0.010136902 0.02746661 0.19493242
-0.0090004206 0.028380066 0.19493242
-0.010136902 0.027464509 0.19784547
-0.0089885443 0.028380066 0.19784547
-0.010136902 0.027398914 0.20075855
-0.0088901073 0.028380066 0.20075855
-0.03926757 0.0044916123 0.20367162
-0.038471937 0.0050755292 0.20367162
-0.036354497 0.0065644681 0.20367162
-0.03926757 0.0041388124 0.20658468
-0.03806071 0.0050755292 0.20658468
-0.036354497 0.0063384324 0.20658468
-0.034337729 0.007988587 0.20367162
-0.034077927 0.007988587 0.20658468
-0.033441439 0.0086125135 0.20367162
-0.030528367 0.010787353 0.20367162
-0.030528367 0.01090166 0.2024852
-0.033441439 0.0084354877 0.20658468
-0.030528367 0.010641709 0.20658468
-0.03926757 0.0037817657 0.20949775
-0.03762354 0.0050755292 0.20949775
-0.036354497 0.0060580373 0.20949775
-0.03926757 0.0034899563 0.21241081
-0.037289575 0.0050755292 0.21241081
-0.036354497 0.0058329701 0.21241081
-0.033908829 0.007988587 0.20949775
-0.033908308 0.007988587 0.21241081
-0.033441439 0.0083542764 0.20949775
-0.030528367 0.010770693 0.20949775
-0.033441439 0.0084075481 0.21241081
-0.030600861 0.01090166 0.21241081
-0.030528367 0.01090166 0.2112956
-0.030528367 0.010962486 0.21241081
-0.03926757 0.0031231344 0.21532388
-0.036977634 0.0050755292 0.21532388
-0.036354497 0.0056043863 0.21532388
-0.03926757 0.0027629137 0.21823695
-0.036597282 0.0050755292 0.21823695
-0.036354497 0.0052773058 0.21823695
-0.03379108 0.007988587 0.21532388
-0.033441439 0.0079121888 0.21823695
-0.033441439 0.007988587 0.21778154
-0.033357501 0.007988587 0.21823695
-0.033441439 0.008316651 0.21532388
-0.030528367 0.010848477 0.21532388
-0.030528367 0.01090166 0.21484673
-0.030528367 0.010491446 0.21823695
-0.03926757 0.0027280152 0.22115001
-0.036369085 0.0050755292 0.22115001
-0.036354497 0.0050865412 0.22115001
-0.03926757 0.0030397624 0.2240631
-0.036512703 0.0050755292 0.2240631
-0.036354497 0.0051831305 0.2240631
-0.033441439 0.0075287819 0.22115001
-0.032926381 0.007988587 0.22115001
-0.033441439 0.0074652433 0.2240631
-0.032843694 0.007988587 0.2240631
-0.030528367 0.01022242 0.22115001
-0.030528367 0.010161877 0.2240631
-0.030381456 0.01090166 0.20367162
-0.027615294 0.013242632 0.20367162
-0.026961893 0.013814718 0.20367162
-0.030195147 0.01090166 0.20658468
-0.027615294 0.01304388 0.20658468
-0.026720956 0.013814718 0.20658468
-0.030370712 0.01090166 0.20949775
-0.027615294 0.013225853 0.20949775
-0.026903093 0.013814718 0.20949775
-0.027615294 0.013389647 0.21241081
-0.027070582 0.013814718 0.21241081
-0.024702236 0.015819192 0.20367162
-0.024702236 0.015597671 0.20658468
-0.023616895 0.01672779 0.20367162
-0.021789163 0.018125474 0.20367162
-0.019635662 0.019640863 0.20367162
-0.0233742 0.01672779 0.20658468
-0.021789163 0.017988682 0.20658468
-0.019586116 0.019640863 0.20658468
-0.018876091 0.020163432 0.20367162
-0.018876091 0.020159081 0.20658468
-0.024702236 0.015631571 0.20949775
-0.024702236 0.015625194 0.21241081
-0.023316443 0.01672779 0.20949775
-0.021789163 0.017902955 0.20949775
-0.019472092 0.019640863 0.20949775
-0.023206845 0.01672779 0.21241081
-0.021789163 0.017809674 0.21241081
-0.019452885 0.019640863 0.21241081
-0.018876091 0.020071998 0.20949775
-0.018876091 0.020077452 0.21241081
-0.015963033 0.022401646 0.20367162
-0.015772983 0.022553921 0.20367162
-0.01304996 0.024851963 0.20367162
-0.015963033 0.022367924 0.20658468
-0.015711531 0.022553921 0.20658468
-0.01304996 0.024633318 0.20658468
-0.012325719 0.025466993 0.20367162
-0.012013018 0.025466993 0.20658468
-0.015963033 0.022281408 0.20949775
-0.015600845 0.022553921 0.20949775
-0.01304996 0.02455762 0.20949775
-0.015963033 0.022368044 0.21241081
-0.015725106 0.022553921 0.21241081
-0.01304996 0.024723262 0.21241081
-0.01189594 0.025466993 0.20949775
-0.012108743 0.025466993 0.21241081
-0.030461401 0.01090166 0.21532388
-0.027615294 0.013182983 0.21532388
-0.026785135 0.013814718 0.21532388
-0.030028462 0.01090166 0.21823695
-0.027615294 0.01287812 0.21823695
-0.026416257 0.013814718 0.21823695
-0.029777601 0.01090166 0.22115001
-0.027615294 0.012770668 0.22115001
-0.026302353 0.013814718 0.22115001
-0.029728413 0.01090166 0.2240631
-0.027615294 0.012747943 0.2240631
-0.026278526 0.013814718 0.2240631
-0.024702236 0.015390739 0.21532388
-0.024702236 0.015160486 0.21823695
-0.02297169 0.01672779 0.21532388
-0.021789163 0.017708927 0.21532388
-0.019539282 0.019640863 0.21532388
-0.022800416 0.01672779 0.21823695
-0.021789163 0.017603278 0.21823695
-0.0194626 0.019640863 0.21823695
-0.018876091 0.020185798 0.21532388
-0.018876091 0.020130008 0.21823695
-0.024702236 0.015075862 0.22115001
-0.024702236 0.015044227 0.2240631
-0.022710413 0.01672779 0.22115001
-0.021789163 0.01751855 0.22115001
-0.019330859 0.019640863 0.22115001
-0.022634253 0.01672779 0.2240631
-0.021789163 0.017437428 0.2240631
-0.01919508 0.019640863 0.2240631
-0.018876091 0.020012811 0.22115001
-0.018876091 0.019899026 0.2240631
-0.015963033 0.02250725 0.21532388
-0.015901133 0.022553921 0.21532388
-0.01304996 0.02481705 0.21532388
-0.015963033 0.022483647 0.21823695
-0.015870735 0.022553921 0.21823695
-0.01304996 0.024781913 0.21823695
-0.012213558 0.025466993 0.21532388
-0.012164339 0.025466993 0.21823695
-0.015963033 0.022367924 0.22115001
-0.01572156 0.022553921 0.22115001
-0.01304996 0.024649844 0.22115001
-0.015963033 0.022251695 0.2240631
-0.015572071 0.022553921 0.2240631
-0.01304996 0.024531662 0.2240631
-0.012006164 0.025466993 0.22115001
-0.011853322 0.025466993 0.2240631
-0.010136902 0.027292818 0.20367162
-0.0087549984 0.028380066 0.20367162
-0.010136902 0.02699551 0.20658468
-0.0084395707 0.028380066 0.20658468
-0.010136902 0.026886076 0.20949775
-0.0083658993 0.028380066 0.20949775
-0.010136902 0.027040184 0.21241081
-0.0085110515 0.028380066 0.21241081
-0.010136902 0.027084395 0.21532388
-0.0084952712 0.028380066 0.21532388
-0.010136902 0.027074084 0.21823695
-0.0084771365 0.028380066 0.21823695
-0.010136902 0.027022719 0.22115001
-0.0084884912 0.028380066 0.22115001
-0.010136902 0.026888475 0.2240631
-0.0083804131 0.028380066 0.2240631
-0.03926757 0.0034357905 0.22697616
-0.0368613 0.0050755292 0.22697616
-0.036354497 0.005391866 0.22697616
-0.03926757 0.003558889 0.22988921
-0.037030965 0.0050755292 0.22988921
-0.036354497 0.0054982007 0.22988921
-0.033441439 0.0075994283 0.22697616
-0.032988772 0.007988587 0.22697616
-0.033441439 0.0076493472 0.22988921
-0.033024654 0.007988587 0.22988921
-0.030528367 0.010195255 0.22697616
-0.030528367 0.010111123 0.22988921
-0.03926757 0.0033225566 0.23280227
-0.036883757 0.0050755292 0.23280227
-0.036354497 0.0054435432 0.23280227
-0.03926757 0.0029589981 0.23571536
-0.036515325 0.0050755292 0.23571536
-0.036354497 0.0051964223 0.23571536
-0.033441439 0.0076201409 0.23280227
-0.032951623 0.007988587 0.23280227
-0.033441439 0.0075254738 0.23571536
-0.032846257 0.007988587 0.23571536
-0.030528367 0.0099130422 0.23280227
-0.030528367 0.0098332167 0.23571536
-0.03926757 0.0028236508 0.23862842
-0.036354497 0.0050124079 0.23862842
-0.036354497 0.0050755292 0.23698279
-0.03926757 0.002940461 0.24154148
-0.036455438 0.0050755292 0.24154148
-0.036354497 0.0050755292 0.24067837
-0.036354497 0.0051501095 0.24154148
-0.036270306 0.0050755292 0.23862842
-0.033441439 0.0074353218 0.23862842
-0.032806069 0.007988587 0.23862842
-0.033441439 0.0075753629 0.24154148
-0.032973707 0.007988587 0.24154148
-0.030528367 0.0099577606 0.23862842
-0.030528367 0.010118693 0.24154148
-0.03926757 0.0029343665 0.24445456
-0.036626816 0.0050755292 0.24445456
-0.036354497 0.0052889884 0.24445456
-0.03926757 0.0026801676 0.24736762
-0.036550358 0.0050755292 0.24736762
-0.036354497 0.0052455515 0.24736762
-0.033441439 0.007741496 0.24445456
-0.033153072 0.007988587 0.24445456
-0.033441439 0.0078131706 0.24736762
-0.033236235 0.007988587 0.24736762
-0.030528367 0.0101915 0.24445456
-0.030528367 0.010222286 0.24736762
-0.029710382 0.01090166 0.22697616
-0.027615294 0.012651965 0.22697616
-0.026164934 0.013814718 0.22697616
-0.029573232 0.01090166 0.22988921
-0.027615294 0.01251395 0.22988921
-0.026019737 0.013814718 0.22988921
-0.029324427 0.01090166 0.23280227
-0.027615294 0.01233761 0.23280227
-0.025801837 0.013814718 0.23280227
-0.02922225 0.01090166 0.23571536
-0.027615294 0.012239903 0.23571536
-0.025608003 0.013814718 0.23571536
-0.024702236 0.014986351 0.22697616
-0.024702236 0.014893457 0.22988921
-0.022554249 0.01672779 0.22697616
-0.021789163 0.017337203 0.22697616
-0.018882871 0.019640863 0.22697616
-0.022407785 0.01672779 0.22988921
-0.021789163 0.017192006 0.22988921
-0.018876091 0.019347206 0.22988921
-0.018876091 0.019640863 0.22702014
-0.018876091 0.019646019 0.22697616
-0.024702236 0.014685735 0.23280227
-0.024702236 0.014493823 0.23571536
-0.022099122 0.01672779 0.23280227
-0.021789163 0.016960561 0.23280227
-0.018876091 0.01915662 0.23280227
-0.021862447 0.01672779 0.23571536
-0.021789163 0.016785577 0.23571536
-0.018876091 0.019100636 0.23571536
-0.018464193 0.019640863 0.22988921
-0.015963033 0.021984175 0.22697616
-0.015261918 0.022553921 0.22697616
-0.01304996 0.024379998 0.22697616
-0.015963033 0.021607727 0.22988921
-0.014843598 0.022553921 0.22988921
-0.01304996 0.024139389 0.22988921
-0.011703357 0.025466993 0.22697616
-0.011535227 0.025466993 0.22988921
-0.018214568 0.019640863 0.23280227
-0.018167883 0.019640863 0.23571536
-0.015963033 0.021442324 0.23280227
-0.014680877 0.022553921 0.23280227
-0.01304996 0.024036884 0.23280227
-0.015963033 0.021422476 0.23571536
-0.014647588 0.022553921 0.23571536
-0.01304996 0.023976028 0.23571536
-0.011468127 0.025466993 0.23280227
-0.011354804 0.025466993 0.23571536
-0.029368952 0.01090166 0.23862842
-0.027615294 0.0122879 0.23862842
-0.025592387 0.013814718 0.23862842
-0.029517367 0.01090166 0.24154148
-0.027615294 0.012304008 0.24154148
-0.025586948 0.013814718 0.24154148
-0.029577434 0.01090166 0.24445456
