# .PCD v0.7 - Point Cloud Data file format
VERSION 0.7
FIELDS x y z
SIZE 4 4 4
TYPE F F F
COUNT 1 1 1
WIDTH 273
HEIGHT 1
VIEWPOINT 0 0 0 1 0 0 0
POINTS 273
DATA ascii
-0.015141902 -0.022306612 0.008649664
-0.0042196796 -0.022838404 0.0082265055
0.0048821745 -0.022187879 0.0088412836
-0.024216944 -0.015010696 0.0078228684
-0.016948536 -0.017979097 0.0069844509
-0.0042196792 -0.0162725 0.0059333248
0.0080474261 -0.01847316 0.0078631099
0.014139796 -0.014059206 0.0081981681
-0.031477179 -0.0056686602 0.008422859
-0.025439685 -0.0071706511 0.0063807992
-0.014459264 -0.0094461143 0.0046724807
-0.0042196792 -0.0094461143 0.0047815172
0.0060199052 -0.0060329195 0.0052087335
0.017615186 -0.0054404666 0.007872425
-0.034301147 0.0042066649 0.009344561
-0.024698846 0.0042066649 0.0057119224
-0.007632874 0.0042066649 0.0048357751
0.0060199052 0.0042066649 0.0046910457
0.018409083 0.0052600191 0.007520135
0.020093165 0.0042066649 0.008038789
-0.031311847 0.012170787 0.0084942365
-0.026246378 0.015263582 0.0072740577
-0.014459264 0.017859444 0.005107807
-0.0042196792 0.017859444 0.0047308374
0.0060199052 0.014446249 0.0048723286
0.016959721 0.014517707 0.007672675
-0.023697408 0.02321477 0.0084781451
-0.01506444 0.027482137 0.0079464549
-0.0042196792 0.027233504 0.0070211194
0.0057302108 0.02701756 0.0079278275
0.013227858 0.022877973 0.0085819792
-0.011046067 0.031512216 0.0095204134
-0.0042196801 0.031512216 0.0091673937
-0.012752665 -0.030913342 0.018278373
-0.0049023191 -0.03107786 0.016913095
0.0026067123 -0.030764235 0.018278373
-0.02403445 -0.024179025 0.01554032
-0.014700885 -0.027932798 0.014354283
-0.0041428525 -0.028389435 0.01296654
0.0061521395 -0.027214902 0.014427421
0.014457483 -0.023643333 0.015943229
-0.033483062 -0.01515244 0.01584335
-0.027596887 -0.01838694 0.01201748
0.01764762 -0.017607398 0.012361771
0.022620348 -0.014961383 0.016180838
-0.041120745 -0.0037574559 0.018583966
-0.036807779 -0.0063271387 0.013545049
0.025312329 -0.0062205344 0.014451504
-0.041793041 0.0040667751 0.018223956
-0.038334779 0.0042066649 0.013125834
0.026028706 0.0042066649 0.013695592
-0.04099375 0.012170787 0.018679975
-0.036391266 0.014976263 0.013821131
0.019672677 0.018866844 0.010843384
0.024628052 0.014198492 0.014630388
-0.033071004 0.023721781 0.0158011
-0.025896966 0.02729659 0.0122749
0.0094330981 0.028808035 0.010795628
0.016678996 0.025864614 0.014167176
0.02232722 0.022002028 0.017533038
-0.023968805 0.03250999 0.016877819
-0.014739985 0.034575708 0.014351008
-0.0044013932 0.03665534 0.015450937
0.0058490932 0.033819012 0.014798841
0.012700695 0.03143042 0.016623346
-0.021285653 -0.031059973 0.026811358
-0.014272577 -0.033000696 0.025341244
-0.0042196801 -0.033726752 0.024576381
0.0049001472 -0.032473225 0.025795072
-0.032427765 -0.022719929 0.025348909
-0.025323879 -0.028152365 0.024982493
0.009192653 -0.0298186 0.022044083
0.016136684 -0.026026921 0.025167121
0.021862272 -0.021708243 0.028517954
-0.041434161 -0.012237616 0.028517954
-0.037222315 -0.016414694 0.024458807
0.024990384 -0.016108816 0.024829853
-0.042929281 -0.0060689431 0.025079498
0.029222637 -0.0062238965 0.024893349
0.030350119 -0.0037574559 0.027380224
-0.044838883 0.0042066649 0.025402084
0.029853895 0.0042066649 0.021927785
0.030976621 0.0042066649 0.026811358
-0.042913329 0.01445897 0.025097676
0.028630069 0.014660572 0.024897959
0.030720174 0.011033054 0.028517954
-0.040990431 0.020909233 0.027380224
-0.036824904 0.025645634 0.024658578
0.019723468 0.028160643 0.021586638
0.024275456 0.023921132 0.025576692
-0.031799302 0.031518012 0.025645386
-0.025073936 0.03593922 0.025043054
-0.015779719 0.038748402 0.022084935
-0.00080648437 0.039731935 0.021691568
0.0067133904 0.03824234 0.023682129
0.015706228 0.03357498 0.025335683
-0.013643248 0.041511297 0.027401499
-0.0045299702 0.041503012 0.025782824
0.0029578551 0.041099645 0.028103698
-0.023186332 -0.032612275 0.036011886
-0.015186229 -0.034929547 0.034570016
-0.0049305325 -0.03627491 0.03617201
0.0064422088 -0.033709165 0.034968939
0.012846291 -0.030898385 0.03705094
-0.033826526 -0.024780037 0.035309542
-0.028018549 -0.029742917 0.034786053
0.01647447 -0.02790338 0.034838375
0.022576138 -0.022424977 0.035344347
-0.041897204 -0.014146828 0.035246275
-0.038518507 -0.019017208 0.034387596
0.026528059 -0.016350165 0.03520612
-0.045499418 -0.0063764672 0.035087392
0.029836942 -0.00921332 0.035685219
0.031219691 -0.0043263212 0.035344344
-0.047577437 0.0042066649 0.035344347
0.032209385 0.0042066649 0.035344344
-0.045409393 0.014734278 0.035133217
0.029658763 0.01714104 0.035344344
0.031062644 0.012739654 0.035344347
-0.041729689 0.022807006 0.034849368
-0.038326003 0.028057303 0.035275128
0.025245674 0.025476877 0.035099447
-0.033200193 0.033195939 0.035300568
-0.026191086 0.038250547 0.034840733
0.0094330981 0.039674155 0.031931151
0.01565101 0.035764396 0.035023924
0.020461602 0.031512216 0.035344344
-0.021004643 0.041098617 0.036197644
-0.015426191 0.042733967 0.034795348
-0.0042196796 0.043747634 0.035344344
0.005658315 0.041708019 0.035629943
-0.024146046 -0.032624204 0.046071526
-0.015328798 -0.035675097 0.046842642
-0.0051261452 -0.036349498 0.045680556
0.0060200035 -0.033479586 0.046800852
0.012419643 -0.030721895 0.046437226
-0.034722872 -0.024533214 0.046437226
-0.028747117 -0.029684346 0.047243215
0.016748929 -0.02749905 0.046625588
0.022225784 -0.022173947 0.04643723
-0.041943055 -0.015203709 0.045925248
-0.039259255 -0.019259045 0.046437226
0.027339082 -0.014948321 0.046692524
-0.045773461 -0.0071450495 0.045154404
0.02989562 -0.0095199673 0.048473973
0.031010607 -0.0053760139 0.046740439
-0.047725786 0.0042066649 0.04558393
0.031765025 0.0045945551 0.046823151
-0.045730934 0.015071273 0.04558393
0.029481333 0.015885949 0.046155278
0.030604018 0.01245522 0.045583926
-0.041944224 0.023156434 0.045583926
-0.038351484 0.028094582 0.045704558
0.024608925 0.025523102 0.046520993
-0.033141561 0.033150773 0.045377903
-0.025900347 0.038374417 0.046562243
0.0094330981 0.039587319 0.047290526
0.015875783 0.034976713 0.046561539
0.020334452 0.031512216 0.042170733
-0.021923414 0.040535498 0.046005107
-0.015579722 0.04267358 0.0469523
-0.0054927226 0.043746147 0.046943899
0.0053970329 0.041525789 0.046398982
-0.023147913 -0.031700287 0.054078948
-0.015549332 -0.034057289 0.05524702
-0.0047204779 -0.034441374 0.055263001
0.0040342468 -0.032300044 0.054195743
0.011139698 -0.030368701 0.050703719
-0.033963088 -0.023677118 0.054875545
-0.027911745 -0.028607389 0.055600595
0.0075589879 -0.029220175 0.057362795
0.015402439 -0.025436416 0.055069514
0.021219999 -0.021577012 0.052198455
-0.04161844 -0.013745847 0.055311304
-0.038347673 -0.01844269 0.055956107
0.019614879 -0.019615119 0.059133451
0.024327258 -0.015192164 0.054962799
-0.044689152 -0.0052741012 0.05607146
0.028427564 -0.0058654021 0.055672776
0.030663833 -0.0028330493 0.051770337
-0.045817845 0.0051732617 0.05632554
0.028893942 0.005059964 0.05726739
0.030893534 0.0043934733 0.052088093
-0.043454062 0.015600177 0.056095526
0.027598746 0.015196002 0.055539966
0.030196216 0.011033054 0.051557019
-0.040763833 0.022019748 0.054295629
-0.036397696 0.026553499 0.056345422
0.018987015 0.028685287 0.057342518
0.023189548 0.024627617 0.054512683
-0.032213222 0.031567898 0.05466181
-0.02560249 0.036084745 0.055533741
-0.018746449 0.038934067 0.057821155
0.0071530957 0.038290162 0.056486521
0.014497095 0.033919469 0.054717064
-0.020884391 0.040045202 0.051202416
-0.014915785 0.041253511 0.054679971
-0.0049088132 0.042007368 0.055147186
0.0032323753 0.04090542 0.05373475
-0.021285653 -0.030333236 0.060943305
-0.014766758 -0.031279959 0.06145905
-0.0058430624 -0.031254482 0.061850317
0.00090011209 -0.030188713 0.060943305
-0.032261252 -0.022358729 0.063042574
-0.025539717 -0.025589554 0.065482289
-0.01539887 -0.027279738 0.066642188
-0.0045843027 -0.026525516 0.066828035
0.0050150156 -0.025180437 0.064999089
0.013283892 -0.022494854 0.062829815
-0.040239599 -0.011932225 0.061722178
-0.035049628 -0.015390598 0.065476149
-0.02912269 -0.01781854 0.069429815
0.0074582868 -0.01849572 0.06929265
0.015843142 -0.015793344 0.066115558
0.021693567 -0.012818437 0.062308647
-0.041668151 -0.0048842658 0.063196011
-0.035573658 -0.0055098264 0.067931771
0.018201819 -0.0070380531 0.068905212
0.023815345 -0.00509154 0.064518556
-0.042195953 0.0051818532 0.063018717
-0.035288002 0.0050952649 0.067844868
-0.029343808 0.0087758377 0.06954205
0.019095434 0.0057407701 0.069435865
0.024297561 0.0050351527 0.064985238
-0.041063979 0.013625508 0.062130556
-0.035699077 0.015845759 0.066145092
-0.029304937 0.015113117 0.0694419
0.018204458 0.016065555 0.069019705
0.023597445 0.015179557 0.064354703
-0.033711627 0.024267875 0.063652292
-0.02604988 0.026554605 0.067197427
-0.018224049 0.02844145 0.069281779
0.0077726673 0.029143618 0.069046706
0.015473275 0.025889197 0.065637462
0.021512382 0.022134278 0.062531136
-0.024061155 0.032842025 0.062820584
-0.015269971 0.03528038 0.065375462
-0.0047718594 0.036210485 0.066250235
0.004809815 0.034393858 0.064875171
0.011896302 0.031984434 0.062209718
-0.011586009 0.040068064 0.060832419
-0.0061012823 0.040134471 0.061048489
-0.021932084 -0.021579234 0.070968166
-0.015483218 -0.022001797 0.071319938
-0.0068250075 -0.021427767 0.070909634
-0.024914799 -0.015102356 0.072062701
-0.015247445 -0.015689068 0.073985741
-0.0051163873 -0.015652698 0.073226586
0.0043683769 -0.014500172 0.07166376
0.011254626 -0.01126569 0.070700206
-0.031525232 -0.0017664265 0.070108965
-0.025837772 -0.005194928 0.072328955
-0.015247762 -0.0054678242 0.074215323
-0.0055421889 -0.0051848385 0.073819146
0.0053415843 -0.0050727227 0.073933423
0.013866267 -0.0045040199 0.071824931
-0.031525232 0.00079347193 0.070056826
-0.025176559 0.0047498709 0.071847193
-0.01502681 0.0049978984 0.073017552
-0.0052063386 0.0052249236 0.072941959
0.0055317217 0.005056547 0.0745655
0.014331223 0.0048671872 0.072203323
-0.024337437 0.015632678 0.071133964
-0.015485021 0.015476048 0.072985321
-0.0050729779 0.015037339 0.073527329
0.0055176243 0.01524764 0.073993161
0.013247009 0.014931861 0.07164263
-0.022955766 0.021687908 0.070757508
-0.014536968 0.024818987 0.071443744
-0.0052318028 0.026245223 0.072598286
0.0049754013 0.025041142 0.072224267
0.011342947 0.022343343 0.070889175
-0.005926277 0.031512216 0.070184402
