# .PCD v0.7 - Point Cloud Data file format
VERSION 0.7
FIELDS x y z rgb imX imY
SIZE 4 4 4 4 4 4
TYPE F F F F F F
COUNT 1 1 1 1 1 1
WIDTH 532
HEIGHT 1
VIEWPOINT 0 0 0 1 0 0 0
POINTS 532
DATA ascii
0.033043321 0.69800001 -0.1101444 4.7916714e-39 347 330
0.019041901 0.63140005 -0.10118487 5.8994371e-39 337.20001 331.39999
0.024839621 0.63425004 -0.10091805 4.5147174e-39 342.33334 330.75
-0.016624758 0.7076 -0.10322293 6.639886e-39 306.60001 323.20001
-0.0016387821 0.70099998 -0.10734024 6.8210277e-39 318.66669 327.33334
0.0032226266 0.70037496 -0.10837001 5.6246495e-39 322.625 328.25
0.056317817 0.70042861 -0.10789587 5.3462647e-39 365.85715 327.85715
0.061208513 0.70099998 -0.10742217 7.0979719e-39 369.80002 327.39999
0.0059449859 0.63708109 -0.092953481 5.0689506e-39 325.32434 323.21622
0.01525835 0.63536674 -0.093794242 5.620681e-39 333.70001 324.20001
0.024530608 0.63424069 -0.094693959 5.1586281e-39 342.06024 325.15662
0.034466285 0.63293958 -0.093404293 5.5274078e-39 351.06061 324.16669
0.044819772 0.63498288 -0.09335085 5.527398e-39 360.25424 323.84747
0.054449081 0.63578933 -0.093286075 5.0678702e-39 368.8421 323.6842
0.062979802 0.63693929 -0.092961319 4.9760347e-39 376.39395 323.24243
-0.013715028 0.64392585 -0.091659591 5.9919845e-39 307.85187 321.18518
-0.0047823763 0.64152288 -0.093179107 6.267491e-39 315.75 322.84091
0.0021119949 0.64063996 -0.095522739 5.1640231e-39 321.88 325.03998
0.068462215 0.64011109 -0.092031099 4.9774682e-39 381 322
0.074030995 0.64150006 -0.091360942 5.5302818e-39 385.81821 321.22729
0.0079697771 0.7072143 -0.094414368 8.9156115e-39 326.42859 316.14288
0.015545053 0.70631588 -0.095680378 8.364586e-39 332.55264 317.26315
0.024495559 0.70734996 -0.095744096 8.6390092e-39 339.75 317.20001
0.036515992 0.7066946 -0.095267847 6.4388964e-39 349.47223 316.88889
0.04465631 0.70613337 -0.094971746 5.9861845e-39 356.06668 316.71112
0.051516436 0.708 -0.095584713 6.6293875e-39 361.5 317
0.06661965 0.70800006 -0.093515776 8.2734693e-39 373.66669 315.33334
-0.012565014 0.71657151 -0.091446973 7.6345739e-39 310 312.78574
-0.0046682195 0.71406901 -0.092171453 8.4614619e-39 316.27585 313.6207
0.0039461367 0.7114864 -0.092107475 8.5558071e-39 323.16217 313.83786
0.015414027 0.71215397 -0.091436133 8.8212495e-39 332.34616 313.23077
0.025068056 0.71185726 -0.092000946 8.8208894e-39 340.08572 313.71429
0.034342047 0.7117601 -0.091198362 7.1721426e-39 347.51999 313.07999
0.045507669 0.71163166 -0.090754002 7.0842532e-39 356.47369 312.73685
0.055549234 0.71102321 -0.092946365 7.9061231e-39 364.55814 314.55814
0.064411439 0.71118748 -0.092077054 7.998316e-39 371.65625 313.84375
0.074628502 0.713 -0.091313124 8.6408113e-39 379.69565 313.04349
0.081680037 0.71357143 -0.090617515 8.5500548e-39 385.28574 312.42859
0.0046899561 0.63720006 -0.088126183 6.5368682e-39 324.19998 318.88
0.013242048 0.63599998 -0.089070208 6.9981728e-39 331.875 319.875
0.025209425 0.63522732 -0.088190116 8.0029809e-39 342.63638 319.18182
0.031925946 0.63414288 -0.088313386 7.3615729e-39 348.71429 319.42859
0.045685314 0.63547367 -0.088314012 6.7223216e-39 361 319.26315
0.055445965 0.63713336 -0.087915726 5.8940113e-39 369.63336 318.70001
0.063203432 0.63745177 -0.086961195 6.2602757e-39 376.54837 317.80643
-0.022520278 0.6478824 -0.084026225 5.7128654e-39 300.17648 313.97058
-0.015209616 0.64522928 -0.085976787 5.8969008e-39 306.55737 315.99997
-0.0051917657 0.64172226 -0.087448202 6.3560824e-39 315.38889 317.72223
0.0011221332 0.63999999 -0.088087454 6.5401178e-39 321 318.5
0.052179195 0.63999999 -0.087526396 6.4403551e-39 366.5 318
0.068411462 0.64073682 -0.08709453 5.9847734e-39 380.89474 317.52631
0.075896256 0.64223039 -0.085732505 6.0766103e-39 387.39999 316.13846
0.084857576 0.64595294 -0.084726185 5.8036247e-39 394.92188 314.8125
0.090752535 0.64700001 -0.085080497 6.0845388e-39 400 315
-0.0403179 0.65700001 -0.080635801 9.2170477e-39 285 310
-0.034345593 0.65390688 -0.082946964 7.6507883e-39 290.04651 312.34885
-0.027333301 0.65115142 -0.08410155 6.4507948e-39 296.06061 313.66669
0.088324159 0.64999998 -0.08091633 5.7124969e-39 397.5 311
0.093733996 0.65191662 -0.081532992 5.2511782e-39 402 311.33334
-0.025633147 0.71899998 -0.086144194 7.4505386e-39 299.66669 308.33334
-0.013313465 0.71784616 -0.08752127 8.2759917e-39 309.4231 309.53848
-0.0050289985 0.71692836 -0.087360032 8.6472853e-39 316 309.5
0.004037004 0.71678936 -0.088236593 9.0099652e-39 323.21054 310.21054
0.01494683 0.71730763 -0.087793931 8.7294126e-39 331.88461 309.80771
0.024717646 0.71720684 -0.087589756 8.9130836e-39 339.65518 309.65518
0.03441488 0.71674186 -0.087397374 7.996158e-39 347.38708 309.54837
0.044389389 0.71747607 -0.088236593 8.2716659e-39 355.28574 310.14285
0.054486077 0.71529621 -0.088065393 8.362435e-39 363.44446 310.22223
0.065433025 0.71596879 -0.087476306 8.3642216e-39 372.125 309.6875
0.074728489 0.71631235 -0.087284341 8.5468206e-39 379.5 309.5
0.084586158 0.71629995 -0.086088762 8.7322909e-39 387.35001 308.55002
0.094272532 0.71638858 -0.082899168 8.5489786e-39 395.05557 306
0.10155082 0.71757144 -0.081598632 8.1859526e-39 400.71429 304.85715
-0.031577181 0.72040015 -0.082100891 7.3554801e-39 295 305
-0.023863459 0.72246003 -0.08359579 8.1819996e-39 301.16 306
-0.015523399 0.7238605 -0.083431572 8.5497003e-39 307.76743 305.74417
-0.0049479669 0.72455192 -0.083094381 8.7373313e-39 316.10345 305.41379
0.004572825 0.72381133 -0.083558723 9.1972249e-39 323.60379 305.84906
0.014265719 0.72394723 -0.083668597 8.9138039e-39 331.23685 305.92105
0.024722878 0.7240237 -0.082839601 9.0042016e-39 339.4762 305.2619
0.035162527 0.72379404 -0.083117403 8.820888e-39 347.70587 305.5
0.045168057 0.72388244 -0.083386183 8.7286937e-39 355.58826 305.7059
0.05519332 0.72366661 -0.083102375 8.636861e-39 363.5 305.5
0.06476564 0.72324389 -0.082730092 8.7312091e-39 371.07315 305.2439
0.075092971 0.72341019 -0.082471043 8.546822e-39 379.20514 305.02563
0.084337167 0.72228003 -0.081654757 8.5468276e-39 386.60001 304.47998
0.090892807 0.72000003 -0.080793604 8.9166849e-39 392 304
-0.0115194 0.73000002 -0.080635801 8.8288011e-39 311 303
-0.0057597002 0.73000002 -0.080635801 9.0124651e-39 315.5 303
0.014719233 0.73000002 -0.080635794 8.9134451e-39 331.5 303
0.020478934 0.73000002 -0.080635801 9.0963945e-39 336 303
0.034558203 0.73000008 -0.080635801 9.0963889e-39 347.00003 303
-0.022758266 0.64900005 -0.079653934 6.9027528e-39 300 310
0.079653934 0.64899999 -0.079653934 8.5475409e-39 390 310
0.08306767 0.64899999 -0.079653934 8.2763434e-39 393 310
-0.042685684 0.65858632 -0.076529056 7.0943677e-39 283.03448 306.27585
-0.035181176 0.65670687 -0.075772136 6.8138054e-39 289.44827 305.81033
-0.027662214 0.65335715 -0.078221709 6.8116362e-39 295.85715 308.28574
0.087530218 0.65063637 -0.078608789 7.5456111e-39 396.72729 308.90909
0.094926625 0.65421873 -0.077638581 6.5382961e-39 402.75 307.6875
0.10385583 0.6579445 -0.075943097 5.9880202e-39 410.02777 305.83334
-0.051214863 0.66722232 -0.072659694 9.4903709e-39 276.22223 302.11111
-0.045476522 0.66321045 -0.072243735 6.6330141e-39 280.89474 302.13159
-0.037521113 0.66100001 -0.07113076 7.2683081e-39 287.625 301.375
0.098144978 0.66244441 -0.073429607 7.8204001e-39 404.5 303.22223
0.10411745 0.66195846 -0.071764365 7.0893119e-39 409.70834 301.83334
0.11233256 0.66649991 -0.070845842 6.3546503e-39 416.125 300.625
-0.053754568 0.67012501 -0.070790827 9.8613156e-39 274.25 300.25
0.11647218 0.671 -0.0705892 1.0965525e-38 419 300
0.098193333 0.71799994 -0.07805033 8.3649517e-39 398 302
0.1019581 0.71790904 -0.077354506 8.2752756e-39 401 301.45456
-0.040677331 0.72499996 -0.07371977 7.1735958e-39 288 298
-0.035133023 0.72494882 -0.075933307 7.630981e-39 292.35898 299.74359
-0.027078187 0.72683334 -0.078479201 8.5489828e-39 298.75 301.58334
0.045951359 0.72800004 -0.07913845 8.8201747e-39 356 302
0.059353836 0.72799999 -0.07913845 9.0034898e-39 366.5 302
0.065752544 0.7275455 -0.078624882 9.0049177e-39 371.54547 301.63638
0.07452368 0.72799999 -0.078647524 8.6393694e-39 378.38464 301.61539
0.085955329 0.72631818 -0.078605607 8.6379442e-39 387.5 301.72729
0.095027067 0.72410005 -0.076169007 8.640098e-39 394.85001 300
0.10270493 0.72208345 -0.072425157 8.2741966e-39 401.125 297.20834
-0.040957868 0.73000002 -0.070396334 7.2640019e-39 288 295
-0.03374717 0.73178262 -0.07229542 8.3642384e-39 293.69565 296.34784
-0.024839683 0.73408014 -0.074719734 8.6393834e-39 300.69998 298.06
-0.014707638 0.73442322 -0.076261967 8.821974e-39 308.57693 299.23077
-0.0053592939 0.73507887 -0.077017292 9.2815102e-39 315.8421 299.76315
0.0046080053 0.73418003 -0.076401941 9.0056436e-39 323.57999 299.35999
0.014611099 0.73448098 -0.07626684 9.0049177e-39 331.34616 299.23077
0.025206497 0.7348001 -0.076072775 9.2797081e-39 339.56363 299.05453
0.035082377 0.73489606 -0.07657738 8.9130794e-39 347.22919 299.4375
0.044955488 0.73423094 -0.075596377 8.8208908e-39 354.9231 298.73077
0.054883447 0.73479998 -0.07522849 8.7290581e-39 362.60001 298.40002
0.064669721 0.73517007 -0.074835218 8.7286937e-39 370.1702 298.06381
0.075276539 0.7347393 -0.074624814 8.6386519e-39 378.43478 297.93478
0.084674165 0.73410648 -0.073961414 8.7315678e-39 385.78723 297.46808
0.093783803 0.73239297 -0.072412923 8.7304972e-39 393.03574 296.39288
-0.023939313 0.74210012 -0.070651792 8.9149053e-39 301.60001 294.30002
-0.015233134 0.74260014 -0.071349457 9.8361287e-39 308.30002 294.80002
-0.0048920796 0.74187988 -0.071956664 1.0205255e-38 316.23999 295.32001
0.0043155109 0.74172717 -0.071408466 9.0967546e-39 323.31818 294.90909
0.015487191 0.74230009 -0.071321033 9.0963987e-39 331.89999 294.80002
0.025088344 0.74164706 -0.070983484 9.0963959e-39 339.29413 294.58823
0.0354512 0.74163151 -0.071380585 8.7290553e-39 347.26315 294.89474
0.044552196 0.74153334 -0.070814677 8.8201719e-39 354.26669 294.46667
0.054897059 0.74155563 -0.070354842 8.6379414e-39 362.22223 294.11111
0.065677799 0.74109095 -0.070638932 8.7287007e-39 370.54547 294.36365
0.073837325 0.74118191 -0.070529424 8.6372226e-39 376.81821 294.27274
0.083150081 0.741 -0.070157878 8.7326454e-39 384 294
-0.043816969 0.66633338 -0.069123119 6.8116334e-39 282.5 299.16669
-0.039404415 0.66100001 -0.0695372 7.5427328e-39 286 300
0.098958127 0.66399997 -0.069852799 8.5507737e-39 405 300
0.10622992 0.66456658 -0.06796813 8.2810195e-39 411.16669 298.33334
0.11245273 0.66745454 -0.067875043 6.4468305e-39 416.09091 298
-0.054260962 0.6730417 -0.066221908 7.7390029e-39 274.02084 296.125
-0.047601182 0.6716153 -0.066165343 7.1771845e-39 279.57693 296.19232
0.10941326 0.671 -0.064706765 9.7446477e-39 413 295
0.11591376 0.6733923 -0.064279735 7.5506586e-39 418.17648 294.45099
0.1210063 0.67407697 -0.062814914 9.8594982e-39 422.38464 293.15387
-0.062099747 0.68255562 -0.062096246 1.216332e-38 268.11111 291.88889
-0.056036375 0.68063647 -0.062055081 7.4584475e-39 273.04547 292
0.11632228 0.6875 -0.060270831 9.3783834e-39 416.5 290
0.12486802 0.68150002 -0.060939729 1.3729921e-38 424.5 291
0.11509756 0.69099998 -0.060577665 9.5609669e-39 415 290
0.11385094 0.70200002 -0.060311154 9.3754995e-39 412.5 289
-0.0502856 0.71700001 -0.060342718 8.2705967e-39 280 288
-0.04902846 0.71700001 -0.060342718 8.2705967e-39 281 288
0.11180481 0.71649998 -0.060929209 9.2854506e-39 409 288.5
0.10639922 0.72606456 -0.066113681 8.6418959e-39 403.58063 291.93549
0.11041756 0.72220004 -0.062806852 9.0106672e-39 407.20001 289.60001
-0.042246643 0.73504359 -0.063427664 7.7195893e-39 287.21741 289.21741
-0.036840964 0.73618191 -0.067996815 8.2720456e-39 291.45456 292.68182
-0.029801406 0.73900002 -0.069968522 9.0081743e-39 297 294
0.08810851 0.73900002 -0.069968522 8.6408029e-39 388 294
0.096599422 0.73686367 -0.068354569 8.9156087e-39 394.77274 292.90909
0.10342208 0.73302639 -0.063751481 8.8248438e-39 400.47369 289.60526
-0.04027582 0.741 -0.061063338 7.7199536e-39 289 287
-0.034180433 0.74406815 -0.064426795 9.3790994e-39 293.79547 289.38638
-0.025450442 0.74734604 -0.067530647 9.8400692e-39 300.57693 291.53848
-0.01506873 0.74733329 -0.068135105 1.048506e-38 308.5 292
-0.0052388767 0.74666667 -0.068074003 9.4683986e-39 316 292
0.0045799259 0.74625009 -0.068035766 8.9134451e-39 323.5 292
0.015247197 0.74708009 -0.068006732 8.9134479e-39 331.63998 291.91998
0.024878172 0.74682128 -0.067432538 9.0049205e-39 339 291.5
0.034917504 0.74677777 -0.067791924 8.9123717e-39 346.66666 291.77777
0.045489959 0.74728125 -0.067432821 8.8208922e-39 354.71875 291.46875
0.054875575 0.74676472 -0.066847637 8.6386561e-39 361.91177 291.05884
0.064722434 0.74574983 -0.067333817 8.6375855e-39 369.5 291.5
0.074852869 0.74617845 -0.067654252 8.6379386e-39 377.21429 291.71429
0.085132539 0.74572736 -0.066229701 8.7304944e-39 385.11365 290.65909
0.094575711 0.74486023 -0.064064093 8.9159689e-39 392.41998 289.06
0.10043478 0.74200004 -0.06166473 9.196492e-39 397.20001 287.39999
-0.031419735 0.75114286 -0.061521962 9.470572e-39 296.14288 286.71429
-0.02457227 0.75213337 -0.062943853 1.0210264e-38 301.36667 287.73334
-0.015176417 0.75277489 -0.063348152 1.0574376e-38 308.5 288
-0.0052834442 0.75342852 -0.063402288 1.0481106e-38 316 288
0.0046245912 0.75360012 -0.06341701 9.0971175e-39 323.5 288
0.015086576 0.75410253 -0.063392244 8.7301343e-39 331.41025 287.94873
0.025107609 0.75367862 -0.062764823 8.5468164e-39 339 287.5
0.03482205 0.75291896 -0.063147657 8.6379414e-39 346.37839 287.83783
0.044923972 0.75286674 -0.06282983 8.6382974e-39 354.03336 287.60001
0.055174336 0.75300002 -0.062104084 8.7297699e-39 361.79169 287.04169
0.065017745 0.75269991 -0.06277144 8.8216082e-39 369.26669 287.56668
0.075112768 0.75239378 -0.062877506 8.8219712e-39 376.93939 287.66669
0.084473372 0.75157887 -0.061587032 8.9138025e-39 384.10526 286.73685
0.092050001 0.75 -0.060489997 8.6375799e-39 390 286
-0.063361682 0.68630779 -0.057153944 8.4740456e-39 267.34616 287.5
-0.056331519 0.68355155 -0.058102213 6.9045563e-39 273 288.48276
0.11821284 0.68530768 -0.058410678 8.3721474e-39 418.38464 288.61539
0.12391863 0.68525016 -0.056963462 7.4616985e-39 423.13889 287.41666
-0.070473477 0.69300002 -0.052855112 1.6038068e-38 262 283.5
-0.065197691 0.69268304 -0.052366346 9.214133e-39 266.31708 283.12195
-0.057258397 0.69488233 -0.054252364 6.9020437e-39 273 284.52942
0.11717501 0.693762 -0.056301866 9.378019e-39 416.33334 286.28571
0.12445956 0.69245166 -0.052241586 7.7343239e-39 422.51611 283.03226
0.13001142 0.69300002 -0.051640049 9.9513379e-39 427 282.5
-0.054222293 0.70385307 -0.054590497 7.997244e-39 276.05884 284.23529
0.11671757 0.70477283 -0.054647338 9.7442806e-39 414.45456 284.22729
0.12096465 0.704 -0.050916359 1.0023743e-38 418 281.25
-0.051651888 0.71133339 -0.053215995 8.0865669e-39 278.58334 282.66669
-0.048554186 0.71189994 -0.056291997 7.9947286e-39 281.10001 285.10001
0.11393782 0.71368569 -0.05437658 9.1003517e-39 411.05716 283.45715
-0.052164584 0.7256667 -0.050893422 7.9028903e-39 279 280
0.1096973 0.72749996 -0.059312634 8.5482471e-39 406 286.5
0.11129008 0.72181261 -0.054893795 8.6397351e-39 407.9375 283.375
-0.051908307 0.73100001 -0.052549154 7.8114206e-39 279.5 281
-0.046050001 0.73452383 -0.054921661 7.5355512e-39 284.2381 282.64285
0.10722249 0.73580009 -0.055690769 8.455711e-39 403.11429 283.17142
0.11077337 0.73154545 -0.053168081 8.4546306e-39 406.36365 281.45456
-0.041712217 0.74457145 -0.054574672 7.6284671e-39 288.04764 281.80954
-0.03817036 0.74641657 -0.05747091 9.1039587e-39 290.83334 283.91669
0.098455422 0.74871433 -0.05832313 8.7322993e-39 395.00003 284.42859
0.10338401 0.74476469 -0.054688841 8.8252096e-39 399.17648 281.88235
-0.034726668 0.75387228 -0.054583643 8.3660265e-39 293.72339 281.29785
-0.026106214 0.75714284 -0.058155976 8.9174024e-39 300.33334 283.80954
-0.015810195 0.75855553 -0.059702165 1.0574387e-38 308.11111 284.88889
-0.0053226189 0.75871432 -0.059862558 1.2516593e-38 316 285
0.004656415 0.75825 -0.059825927 9.6502773e-39 323.5 285
0.015303969 0.75899994 -0.059885092 8.5464605e-39 331.5 285
0.026054531 0.75819993 -0.059422743 8.2720302e-39 339.60001 284.70001
0.035219207 0.75799996 -0.059140805 8.7301385e-39 346.5 284.5
0.045127295 0.75700009 -0.059727311 8.638296e-39 354.00003 285
0.05519186 0.75849998 -0.059845645 8.637224e-39 361.5 285
0.065689653 0.75816667 -0.05926485 8.8219726e-39 369.41669 284.58334
0.075495124 0.75678951 -0.058731407 8.9138011e-39 376.89474 284.26315
0.085530221 0.75588441 -0.058056239 9.0059953e-39 384.53848 283.80771
0.095005989 0.75439644 -0.05484841 9.9326333e-39 391.8302 281.47171
0.10077057 0.75200003 -0.051797472 1.0857452e-38 396.42859 279.28574
-0.031369474 0.76133335 -0.05205939 8.4575103e-39 296.5 279
-0.024169313 0.76280475 -0.053722426 8.9181213e-39 301.92682 280.17072
-0.014823886 0.76427054 -0.055015162 9.6531654e-39 308.9375 281.0625
-0.0053614425 0.76459503 -0.055626128 9.3762127e-39 316 281.5
0.0047930758 0.76546919 -0.055594102 9.0067114e-39 323.57141 281.42856
0.014654481 0.76474416 -0.055527437 8.3660195e-39 330.93024 281.41861
0.02481248 0.76487494 -0.055142995 7.447303e-39 338.5 281.125
0.034909572 0.76578569 -0.054371655 8.6382974e-39 346 280.5
0.045040328 0.76536316 -0.054936707 8.5464563e-39 353.56363 280.94543
0.054910164 0.76425529 -0.05510141 7.9036134e-39 360.9787 281.12766
0.064812966 0.76449007 -0.054553844 8.8223299e-39 368.35297 280.7059
0.074883997 0.76437509 -0.054104488 8.9148801e-39 375.875 280.375
0.084714994 0.76335132 -0.053315312 1.0022665e-38 383.2973 279.83783
0.09166076 0.76133335 -0.051614918 9.8407824e-39 388.66669 278.66669
-0.01307227 0.77133334 -0.050264265 9.5616886e-39 310.33334 277.16669
-0.0054142936 0.77199996 -0.050758116 8.0905186e-39 316 277.5
0.004419452 0.77139997 -0.050674148 8.4589354e-39 323.26669 277.46667
0.015188723 0.77130771 -0.050661225 8.3699669e-39 331.23077 277.46155
0.024251703 0.77176917 -0.050587181 7.7224493e-39 337.9231 277.38461
0.035147324 0.77100003 -0.050017338 8.8219712e-39 346.00003 277
0.044610064 0.77100003 -0.050017338 8.8223215e-39 353.00003 277
0.055019077 0.77099997 -0.050287701 6.7151301e-39 360.70001 277.20001
-0.066058837 0.69771427 -0.048933025 7.7397161e-39 266 280
0.12744027 0.69571435 -0.047628131 6.8148872e-39 424.4762 279.04764
0.130124 0.69360006 -0.047426265 7.4620502e-39 427 279
-0.071147762 0.7057144 -0.044537421 1.4287069e-38 262.5 276
-0.065178648 0.70448852 -0.045666378 6.1716744e-39 267.23254 276.97675
-0.05805774 0.70622224 -0.048565581 7.7235395e-39 273.11111 279.22223
0.11917056 0.708 -0.049654398 9.9293921e-39 416 280
0.12508838 0.70436835 -0.045528889 8.4661437e-39 421.28949 276.86841
0.13157423 0.70683336 -0.041721445 7.6457451e-39 426.16669 273.66669
-0.063389421 0.71304178 -0.041671403 6.5372199e-39 269.29169 273.33334
-0.05694038 0.71432149 -0.045573704 8.2724001e-39 274.53574 276.39288
0.1180639 0.71547055 -0.047442514 9.5588229e-39 414.11765 277.82352
0.12278592 0.7135151 -0.042948212 9.6556961e-39 418.15152 274.33334
-0.053875972 0.72340745 -0.044914491 8.0869299e-39 277.51852 275.40741
0.11598831 0.7241112 -0.045174439 9.0985623e-39 411.36111 275.58334
0.12026113 0.722 -0.040509012 9.6553332e-39 415 272
-0.051472172 0.73281246 -0.042960282 7.8103472e-39 279.9375 273.4375
-0.048161194 0.73522735 -0.0465765 7.351527e-39 282.63638 276.13638
0.10960437 0.73833334 -0.048761368 9.2836682e-39 404.66669 277.66669
0.1127922 0.73483878 -0.043804884 8.9130864e-39 407.54837 274
-0.045137327 0.74517232 -0.044739742 7.1685735e-39 285.44827 274.24136
0.10736135 0.74517649 -0.045497451 8.9163234e-39 402.17648 274.82352
0.1104337 0.741 -0.042874258 8.5468206e-39 405 273
-0.041786779 0.75170583 -0.044421524 7.1682106e-39 288.29413 273.70587
-0.037484091 0.75706887 -0.045907948 7.2589727e-39 291.75861 274.58621
0.098417178 0.75794107 -0.046276245 1.002229e-38 394.05884 274.82352
0.10296153 0.75317138 -0.044746574 8.7308615e-39 397.97144 273.88571
-0.033159576 0.76306045 -0.043824777 7.5359183e-39 295.21213 272.7576
-0.026868578 0.76737136 -0.046165273 8.2738365e-39 300.02856 274.3143
-0.018202228 0.76899999 -0.04988759 9.6567555e-39 306.5 277
0.064719044 0.76899999 -0.049887594 8.7301357e-39 368.00003 277
0.074831389 0.76899999 -0.049887594 9.4684168e-39 375.5 277
0.086337879 0.76783317 -0.047521468 1.0670186e-38 384.13336 275.30002
0.093891636 0.7635687 -0.04415014 1.0025174e-38 390.13727 272.98041
-0.022663221 0.77296555 -0.044066828 8.365316e-39 303.27585 272.51724
-0.015218699 0.77506667 -0.045171976 9.2865437e-39 308.80002 273.24445
-0.0054806005 0.77557588 -0.046396066 9.1028699e-39 315.9697 274.12122
0.0046061766 0.77561295 -0.046979602 9.8450956e-39 323.38708 274.54837
0.014955347 0.77542859 -0.047583297 7.9140223e-39 331 275
0.024995862 0.77538729 -0.046965707 8.3706816e-39 338.38708 274.54837
0.035060454 0.77450001 -0.047401208 8.8223313e-39 345.81821 274.90909
0.044888381 0.77457893 -0.047673874 8.9134381e-39 353.05264 275.10526
0.055256296 0.7749725 -0.046458803 5.6141748e-39 360.66666 274.19446
0.065234832 0.77417654 -0.04618502 7.449098e-39 368.05884 274.02942
0.075097315 0.77363473 -0.044991672 9.5620473e-39 375.36539 273.1731
0.083878703 0.77240634 -0.043081306 1.0762739e-38 381.9375 271.8125
-0.011970005 0.78025001 -0.041383047 9.3798183e-39 311.25 270.25
-0.0053918292 0.78125006 -0.042034522 9.1082494e-39 316.0625 270.6875
0.0049871812 0.78144008 -0.042581879 9.6643351e-39 323.63998 271.07999
0.015305801 0.78272748 -0.04270472 1.0033825e-38 331.15152 271.12122
0.024487214 0.78186369 -0.042370096 7.9147635e-39 337.86365 270.90909
0.03510648 0.78174204 -0.043106996 8.1812821e-39 345.61288 271.4516
0.045171183 0.7815001 -0.043388106 8.822683e-39 352.96667 271.66669
0.054101467 0.78058821 -0.042185511 6.0690489e-39 359.52942 270.82352
0.064621434 0.78049999 -0.0420423 5.8010786e-39 367.22223 270.72223
0.071115196 0.77999997 -0.041027997 8.2716953e-39 372 270
-0.071425654 0.71553332 -0.037128944 1.2350965e-38 263.06668 269.60001
-0.06574896 0.71644807 -0.037681192 6.2631539e-39 267.65518 270
0.12704572 0.71603328 -0.037155706 7.3648226e-39 421.20001 269.60001
0.13195731 0.71400011 -0.036523201 7.2798296e-39 425.40912 269.18182
-0.070988961 0.72733331 -0.031880863 1.2166586e-38 264.33334 265
-0.065065011 0.72388232 -0.033179358 6.7223356e-39 268.73529 266.14706
-0.058290593 0.72275007 -0.037591029 8.4593053e-39 274 269.66669
0.11950369 0.72766662 -0.038062233 9.5627858e-39 413.66669 269.83334
0.12448924 0.72369438 -0.034219515 8.0973583e-39 418.11111 266.97223
0.13162449 0.72183341 -0.03100653 6.359311e-39 424 264.5
-0.061065387 0.73066664 -0.031600621 7.9115237e-39 272.33334 264.66669
-0.054977864 0.73449999 -0.035496421 8.4560711e-39 277.30435 267.56522
-0.049237106 0.73900002 -0.0388714 7.5351966e-39 282 270
0.11629165 0.7349149 -0.035443712 9.2865717e-39 410.25531 267.51062
0.12209292 0.73108339 -0.032151751 9.5660102e-39 415.25 265.08334
-0.052091535 0.74276924 -0.031954635 8.2724001e-39 280 264.53848
-0.04795751 0.74626935 -0.035224129 7.7185075e-39 283.34616 266.9231
0.1087449 0.74726671 -0.036421292 8.5453913e-39 403.00003 267.80002
0.11170521 0.74349993 -0.033536952 9.6571647e-39 405.69232 265.73077
-0.043481145 0.75405407 -0.034514792 7.6259531e-39 287.10812 266.10812
-0.039371759 0.75800002 -0.037710913 7.2586125e-39 290.375 268.375
0.099808499 0.759 -0.038592622 8.1780507e-39 395 269
0.10465118 0.7543959 -0.035051435 8.3613616e-39 399.125 266.5
-0.040028598 0.76100004 -0.032022879 7.8096269e-39 290 264
-0.034768328 0.76478273 -0.034775 7.533403e-39 294.06522 265.93478
-0.029325813 0.76899999 -0.038089849 7.5362798e-39 298.25 268.25
0.09529721 0.76559174 -0.034898411 8.2724015e-39 391 266
0.10089836 0.76120007 -0.032831695 8.269882e-39 395.60001 264.60001
-0.031091858 0.77100003 -0.032443684 7.7170726e-39 297 264
-0.025244117 0.77446818 -0.035246398 7.6288328e-39 301.40424 265.95743
-0.01827885 0.778 -0.038740251 8.2731232e-39 306.60001 268.39999
0.077822186 0.77745456 -0.037795175 1.0117389e-38 377.09091 267.72729
0.08476688 0.7748794 -0.035134315 9.5649312e-39 382.39655 265.86206
0.090571947 0.77100003 -0.035147324 8.4614577e-39 387.00003 266
-0.021026848 0.77999997 -0.032309551 7.5373588e-39 304.625 263.625
-0.014750963 0.78174496 -0.034558497 8.1812877e-39 309.23529 265.2157
-0.0055125421 0.7865358 -0.035157841 8.4607332e-39 316 265.5
0.0040722415 0.78709513 -0.036828715 7.5430901e-39 322.95239 266.69049
0.01476011 0.7874999 -0.038228251 1.0400802e-38 330.6875 267.6875
0.025020679 0.78629988 -0.038531698 1.2523465e-38 338.14999 267.95001
0.034715202 0.7862727 -0.038662195 7.9118965e-39 345.18182 268.04547
0.045544978 0.78716666 -0.037337322 9.009968e-39 353 267.05557
0.055460915 0.78648019 -0.035678651 9.0146413e-39 360.22 265.88
0.064897075 0.78418648 -0.035226308 8.4661395e-39 367.2034 265.62711
0.074143663 0.78109986 -0.034045197 9.1028853e-39 374.13998 264.85999
0.0062989295 0.79027283 -0.032183386 7.6370977e-39 324.54547 263.22729
0.015257305 0.79108578 -0.033286784 6.8044643e-39 331 264
0.024993118 0.79188579 -0.033319041 7.0828561e-39 338 264
0.034689348 0.79142869 -0.033300009 8.9299931e-39 345 264
0.044296868 0.79044461 -0.032285746 1.0401153e-38 351.96295 263.2963
0.052865919 0.79000008 -0.030934645 8.5518401e-39 358.16669 262.33334
0.12816195 0.72733343 -0.028905455 5.711778e-39 420.5 262.66669
0.13158956 0.72664291 -0.026933204 7.6518547e-39 423.28574 261.14288
-0.070492767 0.73100001 -0.027554072 1.3454777e-38 265 261.5
-0.065132894 0.73398089 -0.026002536 7.3687854e-39 269.38461 260.21155
-0.058583952 0.73760003 -0.027932003 8.0008453e-39 274.70001 261.60001
0.11841913 0.73871434 -0.028494423 1.0668406e-38 411.42859 262
0.12484697 0.73363936 -0.025111753 6.9067325e-39 417.06555 259.52457
0.13087317 0.73000002 -0.023038801 8.8522126e-39 422.25 258
-0.063373066 0.74100006 -0.021364952 7.2765772e-39 271.22223 256.44446
-0.055009007 0.74425995 -0.024712462 7.9086483e-39 277.84 258.94
-0.049587425 0.74820006 -0.027285373 8.45679e-39 282.20001 260.80002
0.11515511 0.74483347 -0.025124779 9.7489806e-39 408.18518 259.24075
0.1216936 0.74100006 -0.021653665 8.2911159e-39 413.66669 256.66669
-0.050497167 0.75133336 -0.021516904 8.9159759e-39 281.66669 256.33334
-0.045752212 0.75514627 -0.025284473 8.4557152e-39 285.43903 259.09756
0.10699058 0.75516224 -0.025476359 8.8245019e-39 400.81082 259.24326
0.11129559 0.75057143 -0.022371532 9.7471519e-39 404.57144 257
-0.041012805 0.7613889 -0.023880595 8.4549935e-39 289.27777 257.88889
-0.035490125 0.76577079 -0.025258228 8.2698876e-39 293.5625 258.8125
0.096096814 0.7665832 -0.024864972 7.7210312e-39 391.5 258.5
0.10216723 0.76154816 -0.024120267 8.4560781e-39 396.51611 258.06451
-0.031634081 0.77187496 -0.022498334 8.4553537e-39 296.625 256.625
-0.026982129 0.77511919 -0.025269166 8.0869369e-39 300.14285 258.59525
0.085342735 0.77559328 -0.025053404 5.9905804e-39 382.76273 258.42374
0.09129189 0.77137494 -0.025019189 5.8861122e-39 387.5 258.5
-0.02174318 0.78021038 -0.024263736 8.1794912e-39 304.10526 257.73685
-0.015102385 0.78340811 -0.024724141 7.996179e-39 309 258
-0.0073762075 0.78885162 -0.025460416 7.8146576e-39 314.66666 258.40741
0 0.78899997 -0.02905098 6.996033e-39 320 261
0.05865531 0.78899997 -0.028220952 7.8157282e-39 362.39999 260.39999
0.065303057 0.78802228 -0.025053576 7.3565773e-39 367.26666 258.13333
0.074699551 0.78178567 -0.024672154 8.0948752e-39 374.50003 258
0.081144266 0.77999997 -0.024160933 9.4029257e-39 379.33334 257.66669
-0.0032739518 0.79000008 -0.024239833 7.2686641e-39 317.63638 257.5
0.004949946 0.79141831 -0.024900392 7.9064917e-39 323.56363 257.94543
0.01531991 0.79428571 -0.025066363 8.4585865e-39 331 258
0.025115108 0.79575497 -0.025113173 8.3663964e-39 338 258
0.034856483 0.79526532 -0.025097784 1.1965597e-38 345 258
0.044847704 0.79365402 -0.025203153 8.9238736e-39 352.23077 258.11539
0.054648694 0.79079193 -0.024436057 7.5409602e-39 359.41669 257.625
0.060945868 0.79000002 -0.022854701 7.3547851e-39 364 256.5
0.12727574 0.73857141 -0.018869124 5.8090155e-39 418.28574 254.57144
-0.062339764 0.74464995 -0.017620651 6.9074485e-39 272.25 253.5
-0.05686621 0.74733323 -0.018168388 6.7208937e-39 276.60001 253.86668
0.11782338 0.74709982 -0.017484503 8.7470592e-39 409.95001 253.35001
0.12334178 0.74354547 -0.015014072 6.9135638e-39 414.61365 251.52274
-0.061210971 0.75239998 -0.011870067 9.2152049e-39 273.60001 249
-0.054191373 0.75429177 -0.01432148 6.9953254e-39 279.02084 250.83334
-0.047252916 0.75799996 -0.017792532 8.6408239e-39 284.44446 253.38889
0.10869312 0.75755554 -0.016673615 9.2854731e-39 401.83334 252.55556
0.11403316 0.75332004 -0.014156761 9.3852161e-39 406.34 250.72
-0.050702889 0.76099998 -0.010674292 6.538659e-39 282 248
-0.043863464 0.762465 -0.013988137 8.274198e-39 287.18604 250.46512
-0.037106127 0.76746154 -0.015265467 8.6401037e-39 292.4231 251.34616
0.096725702 0.7674166 -0.01509907 8.4593137e-39 391.88889 251.22223
0.10390553 0.76239973 -0.014524377 9.3791064e-39 397.73334 250.86667
-0.032836579 0.77339131 -0.014384652 8.7315818e-39 295.78262 250.6087
-0.026728163 0.77685016 -0.014982322 8.6390261e-39 300.375 251
0.085593708 0.77591991 -0.015046227 6.0896241e-39 382.91998 251.06
0.092083395 0.77234995 -0.014353225 6.5307725e-39 388 250.60001
-0.021457514 0.78012484 -0.015045902 8.5471934e-39 304.3125 251
-0.015098164 0.78312248 -0.015103533 8.3638783e-39 309 251
-0.0069907443 0.78835285 -0.015082427 8.2720442e-39 314.94119 250.91176
0.065748192 0.78846329 -0.01517326 8.5735322e-39 367.56097 250.9756
0.074745417 0.78226775 -0.015087147 6.9925088e-39 374.50003 251.00002
0.080688395 0.77999997 -0.014359798 6.8109818e-39 379 250.5
-0.0022162138 0.79000008 -0.015513495 7.816447e-39 318.40002 251.20001
0.0048624934 0.7916429 -0.015269217 7.0796135e-39 323.5 251.00002
0.015342955 0.79538774 -0.015340589 7.6284783e-39 331 251
0.025121761 0.79599994 -0.015352186 9.8458061e-39 338 251
0.034881607 0.7957958 -0.015347319 9.1968479e-39 345 251
0.045257673 0.79432142 -0.015320811 6.6233381e-39 352.50003 251.00002
0.055423934 0.79028612 -0.015242406 5.4287578e-39 360 251
0.061119009 0.79000002 -0.015409608 5.1521695e-39 364.125 251.125
0.12344518 0.74900001 -0.0091927266 1.225875e-38 414 247
-0.060812615 0.75400001 -0.0092540924 1.3363645e-38 274 247
-0.056412816 0.75711107 -0.0078164581 8.9382635e-39 277.5 245.88889
0.11522596 0.75645232 -0.006122055 8.1106693e-39 406.88095 244.61905
0.12143894 0.75387502 -0.0075985091 1.1431155e-38 411.875 245.75
-0.051879268 0.762375 -0.0055914898 7.370219e-39 281.1875 244.1875
-0.045214526 0.76577348 -0.00556819 7.0889559e-39 286.32077 244.15094
-0.038220253 0.76825005 -0.0079134507 8.365672e-39 291.625 245.875
0.098375149 0.76860005 -0.0059281946 9.4702217e-39 393 244.40001
0.10528351 0.76499999 -0.0053619104 8.5576106e-39 398.50003 244.00002
0.11119054 0.76100004 -0.0040028598 6.6351805e-39 403.33334 243
-0.041005209 0.77100009 -0.0018024266 7.1822306e-39 289.66669 241.33334
-0.034150437 0.77456534 -0.0049888063 8.5504276e-39 294.84784 243.67392
-0.027613247 0.77774996 -0.0088635376 8.7315776e-39 299.75 246.5
0.086176477 0.77627295 -0.0057220832 7.3598031e-39 383.31821 244.20456
0.093665481 0.77300006 -0.0051200246 9.1039643e-39 389.11111 243.77779
-0.030087199 0.77999997 -0.0013675999 9.1925544e-39 298 241
-0.024183353 0.7807858 -0.0049207713 8.7315832e-39 302.33334 243.59525
-0.015124501 0.78451025 -0.0055000978 8.547908e-39 309 244
-0.0063841995 0.78894842 -0.0054264744 8.4553593e-39 315.38461 243.92308
0.065008014 0.78787494 -0.0054401187 7.2647488e-39 367.0625 243.9375
0.074768402 0.78250009 -0.0054873065 8.1816562e-39 374.50003 244.00002
0.081380822 0.78008318 -0.004444846 8.3656804e-39 379.5 243.25
-0.0022162136 0.79000002 -0.0059560733 7.9965377e-39 318.39999 244.3
0.0048582982 0.79096466 -0.005547984 7.9965405e-39 323.5 244.00002
0.015322198 0.79436725 -0.0055731665 8.1794912e-39 331 244
0.025077891 0.79461223 -0.0055754567 7.3558318e-39 338 244
0.034824565 0.79448992 -0.0055740974 8.0887403e-39 345 244
0.045185532 0.79303569 -0.0055632009 7.3576703e-39 352.50003 244.00002
0.05540533 0.7900005 -0.0055405321 7.3573088e-39 360 244
0.060945868 0.79000002 -0.0096959332 5.6113512e-39 364 247
0.11444708 0.759 -0 1.2902308e-38 406 240
-0.047190964 0.76899999 -0 9.121196e-39 285 240
0.10574158 0.76680773 0.0019143701 7.0057622e-39 398.65387 238.57693
0.11178201 0.76200002 0.00089069334 1.1523352e-38 403.66669 239.33334
-0.050584018 0.77140003 0.0010828587 1.2996303e-38 282.60001 239.2
-0.043838907 0.77275014 0.002711969 1.0872198e-38 287.64288 238.00002
-0.03654132 0.77542442 0.0035868951 8.4740372e-39 293.12122 237.36365
0.088096827 0.77700007 0.0014765989 8.5486269e-39 384.66669 238.91667
0.094546854 0.77527118 0.0047975359 8.0130772e-39 389.55933 236.47458
0.10073203 0.77163637 0.0030772595 7.8297496e-39 394.45456 237.72728
-0.031641565 0.78056008 0.0053116172 8.1960252e-39 296.88 236.12
-0.024689188 0.78242862 0.0048040068 7.3623156e-39 302 236.50002
-0.015173846 0.78700006 0.0048334394 7.8164625e-39 309 236.50002
-0.0081799841 0.7889998 0.0039095515 8.4578704e-39 314.08698 237.17392
0.064932756 0.78799999 0.0048376336 8.8234159e-39 367.00003 236.50002
0.074897684 0.78384411 0.0048125698 8.0890907e-39 374.5 236.5
0.084321976 0.7810638 0.0054209311 7.5438314e-39 381.57446 236.04254
-0.0036940074 0.7901215 0.0055000465 8.4578704e-39 317.33334 236.0303
0.0048612244 0.79165637 0.0048610601 8.4571557e-39 323.5 236.5
0.015329768 0.79471427 0.0048789629 8.5486283e-39 331 236.50002
0.025101345 0.79535729 0.0048838467 7.5391525e-39 338 236.50002
0.034837551 0.7947858 0.0048798406 8.2756497e-39 345.00003 236.50002
0.04510631 0.79298407 0.00479083 8.4593277e-39 352.44446 236.55557
0.05533101 0.79035127 0.0049365857 8.6419155e-39 359.92984 236.4386
0.093107738 0.7778182 0.011530238 1.1338235e-38 388.27274 231.54546
-0.031191362 0.78200001 0.011312068 1.3362564e-38 297.25 231.75
-0.024241904 0.78427267 0.012564945 1.1609761e-38 302.36365 230.86365
-0.015349469 0.78893518 0.013475891 9.12048e-39 308.90323 230.25806
-0.0087152943 0.78899997 0.014663828 8.0141296e-39 313.70001 229.40001
0.058793649 0.78899997 0.018675629 8.4776399e-39 362.5 226.5
0.065638989 0.78899974 0.014740151 7.8279727e-39 367.44827 229.34483
0.074680507 0.78546524 0.014094106 8.7542422e-39 374.23254 229.76744
0.084964268 0.78162503 0.01267682 8.8471441e-39 382 230.75
0.090261593 0.77999997 0.013675999 1.3087068e-38 386 230
-0.0040343101 0.79225016 0.014677808 7.7379155e-39 317.09375 229.4375
0.0048802784 0.79453588 0.015326073 8.1960322e-39 323.5 229.00002
0.015342741 0.795551 0.015343381 8.5619336e-39 331 229
0.02512176 0.79599994 0.015352183 8.3761046e-39 338 229
0.034892906 0.79604083 0.015353185 8.8381576e-39 345 229
0.044653386 0.79587746 0.015351829 8.1031205e-39 352 229
0.054508835 0.79176944 0.015005701 8.6555712e-39 359.26926 229.19232
0.06420093 0.79000002 0.015929034 8.0145192e-39 366.35001 228.5
0.058793649 0.78899997 0.0207507 1.1154184e-38 362.5 225
0.061560407 0.78899997 0.0207507 1.1616614e-38 364.5 225
-0.0020987398 0.79799998 0.020987399 1.3454761e-38 318.5 225
0.00069782668 0.796 0.0209348 1.3361492e-38 320.5 225
0.017445667 0.796 0.0209348 1.1888874e-38 332.5 225
0.025883025 0.79600006 0.021442309 1.0689249e-38 338.54547 224.63637
0.034070421 0.79640001 0.021364719 1.1243503e-38 344.39999 224.7
0.040473945 0.796 0.0209348 1.3270012e-38 349 225
0.053725637 0.79399997 0.020882202 1.0872906e-38 358.60001 225
