# .PCD v0.7 - Point Cloud Data file format
VERSION 0.7
FIELDS x y z
SIZE 4 4 4
TYPE F F F
COUNT 1 1 1
WIDTH 496
HEIGHT 1
VIEWPOINT 0 0 0 1 0 0 0
POINTS 496
DATA ascii
0.013265267 -0.025027391 -0.011207229
-0.0033749416 -0.0083871819 -0.01403581
0.013265267 -0.0083871819 -0.015947802
0.029905476 -0.0083871819 -0.013044227
-0.02001515 0.0082530268 -0.011765983
-0.0033749416 0.0082530268 -0.016733203
0.013265267 0.0082530268 -0.019491028
0.029905476 0.0082530268 -0.015168334
-0.0033749416 0.024893235 -0.014099305
0.013265267 0.024893235 -0.015957076
0.029905476 0.024893235 -0.013596767
0.013265267 0.041533444 -0.011153487
0.0049451627 -0.033347495 -0.0039462037
0.013265267 -0.032310437 -0.0066991076
0.021585375 -0.031924069 -0.0062133605
-0.011695046 -0.022804234 -0.0059579136
-0.0040745912 -0.025418222 -0.0081454571
0.0049451627 -0.029660685 -0.0078817159
0.029905476 -0.025779752 -0.0082992921
0.035138074 -0.025027391 -0.0054810736
-0.02001515 -0.014194053 -0.0062785717
-0.015748248 -0.016707286 -0.0078817159
0.038864538 -0.017589534 -0.0078817159
-0.024136588 -0.0042271297 -0.0075450093
0.046334349 -0.0051881047 -0.0074168914
-0.02784455 0.0082530268 -0.0072549041
0.047791414 0.0082530268 -0.0087153818
-0.027460452 0.016573135 -0.0068181911
0.048906706 0.016573135 -0.0078817159
-0.022870829 0.026132777 -0.0067419671
0.046460055 0.024699166 -0.007805028
-0.02001515 0.033213336 -0.005105827
-0.014364423 0.035414338 -0.0078817159
0.038225576 0.038083222 -0.0078817159
0.044199411 0.033213336 -0.0054044779
-0.011695046 0.041533444 -0.0033265464
-0.0039531924 0.041818462 -0.0081195142
0.0049451627 0.04763522 -0.0045201946
0.013265267 0.048157815 -0.0058030514
0.025745425 0.045177333 -0.0070909625
0.035897363 0.041533444 -0.0061896574
-0.005634984 -0.032321207 0.0050415494
0.0045831255 -0.035627861 0.0057870266
0.015713334 -0.035640139 0.0062263771
0.026366042 -0.033919789 0.0053951307
0.03322494 -0.031399306 0.0045419624
-0.020254748 -0.021112232 0.0051758941
-0.01487142 -0.02616802 0.0054380689
-0.00972775 -0.029519055 0.0011317309
0.037295073 -0.028483929 0.0061631752
0.042832326 -0.022905618 0.0054945326
-0.024742479 -0.01503519 0.006062923
-0.011695046 -0.011507222 0.009764228
-0.0052314689 -0.014351972 0.0084952358
0.0049920361 -0.015037783 0.0085532954
0.015246016 -0.014119378 0.0088560032
0.025829341 -0.014155812 0.0089446837
0.033762895 -0.01310191 0.0094617708
0.047080211 -0.01523053 0.0047650347
0.050396305 -0.010467209 0.0063955695
-0.030708678 -0.0020262962 0.005985124
-0.028706487 -0.0074007348 0.0052523934
-0.012698977 -0.0032431914 0.0091166589
-0.0057765702 -0.0045819934 0.007828217
0.0049451622 -0.0042271293 0.007941165
0.015705012 -0.0046354365 0.0084257564
0.025433138 -0.0045427093 0.0081206653
0.034838755 -0.0044768183 0.0088563506
0.041137617 -0.0067231604 0.0096412431
0.052197918 -0.0044675688 0.0047188848
-0.032258932 0.0056848289 0.0054683783
-0.013466002 0.0054090214 0.0089011779
-0.0054549682 0.005132989 0.0079703694
0.0049451627 0.005132989 0.0077385292
0.015345293 0.005132989 0.0079270126
0.025918763 0.0057636015 0.0083339587
0.035332456 0.0053904089 0.00865262
0.041137617 0.0065890066 0.0094536189
0.054421593 0.0055101695 0.0046764957
-0.031926088 0.014078669 0.0058230837
-0.012557573 0.012875305 0.009454784
-0.0057013044 0.01473608 0.0086102113
0.0050472808 0.015132682 0.0082646385
0.015407151 0.014987615 0.0085929511
0.025688108 0.014550316 0.0090651782
0.035027187 0.014448373 0.0087013002
0.041974813 0.015064566 0.0091598062
0.05465246 0.014169843 0.004977541
-0.03043553 0.021637181 0.0064033568
-0.028273284 0.026951186 0.0056494558
-0.011695046 0.022813212 0.0097777769
-0.00397855 0.022789041 0.0094321389
0.0050823381 0.025023755 0.0089956038
0.015077044 0.025018873 0.0087890057
0.025889225 0.025081696 0.0087272041
0.034984905 0.024633596 0.0087025799
0.042577423 0.023506552 0.0092941066
0.052000124 0.025297498 0.0045884242
-0.023018518 0.034313582 0.005862053
-0.018289309 0.039293583 0.0057870271
0.0059478646 0.034398939 0.0088947853
0.014174723 0.034728929 0.0089142695
0.026690891 0.03264606 0.0093610846
0.032817509 0.032797333 0.0096149174
0.046195496 0.035429727 0.0050729271
-0.013986558 0.042876076 0.0059373602
-0.0056221653 0.047514468 0.0059007164
0.0011355784 0.04971863 0.0021770308
0.028144019 0.049370695 0.0052224863
0.035408597 0.045774888 0.004965371
0.041083053 0.041548956 0.0039934069
0.0055394559 0.050932851 0.0051927338
0.015154436 0.05195424 0.0044098399
0.023580844 0.051213861 0.0040848809
-0.0046807984 -0.03261264 0.014998575
0.004183908 -0.035811011 0.014833236
0.015523127 -0.036116228 0.014524101
0.025737956 -0.034666687 0.01469719
0.033560455 -0.031684462 0.015371131
-0.020244725 -0.021107335 0.01499857
-0.014252881 -0.0253205 0.015208623
-0.0056438604 -0.024221258 0.01493837
0.00502735 -0.025459068 0.014123438
0.015258096 -0.026299506 0.01390643
0.025675794 -0.024945935 0.014037531
0.035246227 -0.024254691 0.015140343
0.043665025 -0.024231443 0.014912718
-0.024446236 -0.01480056 0.01521241
-0.015112238 -0.014870722 0.014531811
-0.0087700281 -0.018458625 0.010730269
0.018465333 -0.018787313 0.010144098
0.021585375 -0.018787313 0.010205705
0.03758442 -0.017523576 0.012774269
0.044246193 -0.015099864 0.014852739
0.051711403 -0.013103021 0.015480523
-0.030515952 -0.0014987085 0.014891803
-0.02444816 -0.0051781121 0.015626431
-0.017186694 -0.0052634538 0.011090002
0.044813406 -0.0040354687 0.014574012
0.054639481 -0.0043936451 0.014859841
-0.031566244 0.0051329876 0.01499857
-0.023042012 0.0050756484 0.014996404
-0.018538928 0.0051329881 0.010541255
0.046229269 0.0047724354 0.014322132
0.056197017 0.0051377076 0.014592336
-0.030954489 0.015061184 0.014759199
-0.023082986 0.014716975 0.01526055
-0.016765228 0.015387452 0.010824192
0.046979818 0.0142503 0.015291674
0.056414057 0.014781927 0.015059755
-0.030223953 0.020733181 0.01083852
-0.025360066 0.024664192 0.016195487
-0.016217448 0.02600109 0.012440256
-0.0071545141 0.027622176 0.010594159
0.03760495 0.028988205 0.01072059
0.044628061 0.025468215 0.014304157
0.053179998 0.024758512 0.01492266
-0.023012178 0.034638681 0.014934182
-0.014540257 0.034135025 0.016066393
-0.0052651796 0.035994641 0.013838882
0.0024904157 0.038324457 0.011629038
0.018653924 0.037784893 0.010592095
0.025694659 0.037652321 0.011514003
0.035289302 0.035825934 0.014836222
0.044478159 0.034686964 0.015420801
0.050613172 0.03100927 0.018235222
-0.014472879 0.043532223 0.015023438
-0.0054035368 0.047501888 0.015061894
0.0054403795 0.042761158 0.015358416
0.015105983 0.043522943 0.014247573
0.026089111 0.04511486 0.015108066
0.035481106 0.045284085 0.014963605
0.040916491 0.041394677 0.016139481
-0.001988257 0.050570026 0.016731929
0.0050042267 0.051815387 0.015076349
0.015240934 0.051801484 0.015136034
0.023755999 0.051262073 0.0162267
-0.0054809027 -0.032432068 0.025484584
0.0041827611 -0.036069591 0.025286987
0.01525523 -0.037431117 0.025094923
0.026095076 -0.034866091 0.025542129
0.033556692 -0.031585015 0.025141316
-0.020037554 -0.020738855 0.024346165
-0.014299231 -0.024731308 0.025551245
-0.0054782555 -0.02523919 0.02538546
0.0049950746 -0.02886855 0.025461741
0.016051823 -0.02949273 0.025306355
0.02598723 -0.027543344 0.025211841
0.035861745 -0.024532225 0.025322497
0.043562979 -0.024124727 0.025535375
-0.023575632 -0.01410971 0.025197873
-0.016511729 -0.016156927 0.025330078
0.044408474 -0.015655173 0.02531915
0.052036956 -0.013608132 0.025313258
-0.030427873 -0.0003954728 0.025728192
-0.025574667 -0.004951383 0.025307462
0.048480622 -0.0046163914 0.024993137
0.055812445 -0.0041405051 0.025546897
-0.031648565 0.0049054474 0.0253987
-0.025438264 0.0051329876 0.025398701
0.049711108 0.0045089805 0.022902669
0.054201782 0.0053265239 0.025831832
-0.030925533 0.013183566 0.024667799
-0.026953872 0.015117855 0.025831755
0.049152762 0.016670736 0.023476647
0.054940339 0.014328933 0.026069736
-0.024701057 0.025121335 0.025406634
-0.019864311 0.029053289 0.025398701
0.046850249 0.025005113 0.025154566
0.054375526 0.025614269 0.025429163
-0.022095213 0.034399919 0.02523038
-0.015623967 0.035623938 0.025248483
-0.008442428 0.039260752 0.025085142
0.036625367 0.038239006 0.025059495
0.044642206 0.035319503 0.025555413
0.050929409 0.031914372 0.025918707
-0.013767972 0.043393083 0.025430622
-0.0051279678 0.045333695 0.025390368
0.0047941562 0.044963285 0.025528429
0.015364754 0.045694727 0.024948396
0.025892602 0.043489784 0.025233606
0.034423873 0.045764565 0.025315497
0.041497242 0.042343333 0.02600131
-0.0020749248 0.050448686 0.024618693
0.0050177183 0.051910084 0.025505405
0.015345289 0.052975245 0.0253987
0.025680918 0.051705502 0.025398701
-0.0058183344 -0.032717556 0.035798836
0.0044965562 -0.035505842 0.035978884
0.014751 -0.035215084 0.036393132
0.025964178 -0.035108257 0.035536598
0.033626221 -0.031839952 0.035972178
-0.02001515 -0.020299317 0.033718806
-0.01459904 -0.024565952 0.035845172
-0.0054845097 -0.024735561 0.036157515
0.0044620233 -0.028735425 0.035164937
0.017107861 -0.029544927 0.034206327
0.025652498 -0.027827376 0.036027551
0.036179919 -0.024943149 0.035736173
0.043347955 -0.023567488 0.036089119
-0.023477079 -0.014261187 0.036067713
-0.016836137 -0.016425867 0.035510987
0.045199748 -0.015812343 0.035415262
0.052201714 -0.013779652 0.036108006
-0.030834515 -0.0016463839 0.035530895
-0.025223482 -0.0052455543 0.035914943
0.048337579 -0.0046927743 0.035329208
0.055852603 -0.0045280196 0.035928339
-0.032361094 0.0049979035 0.036434826
-0.024864655 0.0051329881 0.03579884
0.049763888 0.0020129494 0.033718809
0.054144733 0.0051654964 0.03606528
-0.03087919 0.0128121 0.036049385
-0.026651861 0.015478413 0.035173453
0.054119375 0.01525079 0.035678133
-0.024815582 0.024719622 0.035690822
-0.019532047 0.029053289 0.03267879
0.047416884 0.025155762 0.03563321
0.054296263 0.025291437 0.035615813
-0.022390014 0.034164373 0.035916045
-0.015628329 0.035262089 0.035805188
-0.0080800848 0.039125465 0.035642236
0.036431104 0.037832495 0.035490513
0.04499051 0.035094149 0.036379222
0.050930649 0.031899951 0.035278827
-0.014403644 0.043805666 0.035723243
-0.0053502144 0.045328114 0.035635043
0.004984478 0.044297736 0.03576668
0.015133749 0.045697991 0.035770103
0.025830725 0.043949876 0.035952661
0.034310579 0.046017464 0.035902992
0.041942548 0.042518597 0.035858728
-0.0023349281 0.050635051 0.035798829
0.0048567881 0.05205496 0.03570018
0.015345292 0.0531746 0.03579884
0.02579106 0.051835608 0.035746243
-0.0054160114 -0.033138059 0.045566354
0.0055566072 -0.034268133 0.045064405
0.015275963 -0.033636924 0.045500565
0.025215566 -0.034835558 0.045409888
0.033718567 -0.032218825 0.045338076
-0.02028814 -0.02102875 0.04633937
-0.01441747 -0.024607925 0.044993199
-0.0054782806 -0.025819 0.045195691
0.0021933194 -0.028955603 0.044941619
0.026391704 -0.028314432 0.045161385
0.036739867 -0.025902914 0.045201179
0.043917198 -0.022952259 0.045209806
-0.023455897 -0.014366981 0.045182243
-0.017599642 -0.01732341 0.045221228
0.045085903 -0.015534141 0.045264084
0.052642904 -0.01397711 0.045110788
-0.031042688 -0.0020256396 0.045398951
-0.025691355 -0.0055356277 0.044995207
0.048778448 -0.0066186469 0.044735812
0.054549087 -0.003294047 0.045282919
-0.032587584 0.004875402 0.045252204
-0.025123471 0.0051329881 0.045158952
0.054650206 0.0055637076 0.045405451
-0.030789528 0.013456796 0.045526829
-0.026913453 0.015668811 0.044990323
0.054324955 0.015203997 0.045227841
-0.024767101 0.025190409 0.045367554
0.047802541 0.025953863 0.045260351
0.054008752 0.025189757 0.045386881
-0.022705836 0.035529766 0.045173228
-0.015513822 0.034976691 0.045036603
-0.0095386691 0.039417807 0.045433138
0.037344482 0.038663816 0.044920348
0.04507393 0.035162814 0.044923518
0.050929774 0.031792458 0.045043394
-0.014845787 0.043780077 0.045179076
-0.0055458131 0.045193389 0.04531683
0.0048073442 0.045356628 0.044876415
0.015345297 0.047048625 0.045158949
0.026049901 0.045479547 0.044997908
0.034113567 0.045598049 0.045428846
0.042326801 0.042650297 0.045101065
-0.0023349281 0.050621621 0.045158949
0.0047434908 0.052612972 0.04528375
0.015277297 0.05369192 0.045630205
0.025496852 0.051760696 0.044948168
-0.011633739 -0.031037759 0.055131372
-0.0054318602 -0.034353498 0.05465512
0.0055563091 -0.035624951 0.054824416
0.015307956 -0.034155782 0.054728448
0.02507573 -0.033681095 0.054579295
0.033841565 -0.032028764 0.05562469
-0.021043127 -0.021325264 0.054999068
-0.015251615 -0.024791475 0.054301433
-0.0052387556 -0.025452202 0.054633219
0.0031457834 -0.028974913 0.054675784
0.028141819 -0.028988278 0.054482631
0.035984799 -0.025954988 0.054142166
0.044037558 -0.024228072 0.05464242
-0.023773992 -0.014052482 0.054655693
-0.01744581 -0.017279675 0.05437848
0.045205988 -0.015602306 0.054352488
0.052643977 -0.014337131 0.055208739
-0.031189181 -0.0022370312 0.055341017
-0.026359512 -0.0054594977 0.054694891
0.048861276 -0.0076468056 0.054653645
0.054667622 -0.0039801477 0.054515623
-0.032472797 0.0049619065 0.054382741
-0.026141817 0.0053396244 0.054523591
0.055416651 0.0049170484 0.054746423
-0.031386718 0.014741723 0.054778118
-0.026091229 0.014221237 0.054594405
0.055062097 0.014527363 0.054639302
-0.030371876 0.021337757 0.057576194
-0.025197735 0.025384555 0.054160599
0.047933728 0.026818022 0.054349996
0.054664172 0.024451077 0.054776032
-0.022876402 0.035426483 0.054836616
-0.015160928 0.035455447 0.054744713
-0.009615019 0.039832857 0.050359018
0.037656933 0.038538795 0.054172389
0.045077592 0.035502609 0.054296009
0.051448125 0.032936253 0.055291768
-0.014967229 0.043485403 0.054584537
-0.0061796815 0.045067813 0.054664262
0.0049275514 0.045678448 0.054543268
0.015345292 0.046806511 0.054519065
0.026107443 0.04563731 0.054821812
0.03446003 0.045730617 0.054471437
0.042858325 0.043299407 0.054964297
-0.0023687959 0.051030602 0.055540588
0.0050423234 0.053220585 0.054621987
0.015731627 0.054255854 0.054347463
0.025492199 0.052496135 0.054981634
0.031450197 0.0510896 0.057985779
-0.0012949146 -0.040527314 0.06907925
0.0052676224 -0.041488577 0.067268625
0.015074009 -0.041407704 0.067491487
0.022278717 -0.040572517 0.068385914
-0.014035203 -0.032705534 0.065527074
-0.0054484555 -0.037233323 0.06468121
0.0059786979 -0.035003994 0.06436342
0.015468477 -0.033733796 0.064141132
0.02509121 -0.036739875 0.064638793
0.035075322 -0.034553871 0.06462191
0.041832186 -0.031666189 0.066400491
-0.022999033 -0.023758154 0.065680057
-0.015155565 -0.02436872 0.06417717
-0.0054175206 -0.026293622 0.065316774
0.0025801663 -0.029074136 0.064351343
0.027059156 -0.028922902 0.064962022
0.035290297 -0.024410633 0.065032609
0.045832951 -0.026266694 0.064555474
0.051494077 -0.022100642 0.065859705
-0.031294588 -0.013045864 0.067500159
-0.024753006 -0.014585025 0.064131364
-0.017945904 -0.017676519 0.065138139
0.044460818 -0.014868519 0.065076761
0.05571413 -0.014772336 0.065007165
-0.033075005 -0.0044114459 0.064924628
-0.025542198 -0.004655838 0.064626493
0.048926707 -0.0088306461 0.063879184
0.054827772 -0.004852925 0.06442254
0.061121874 -0.0024849449 0.067456149
-0.034983914 0.0051329876 0.064645171
-0.026493169 0.0049210037 0.065009631
0.054328743 0.0043611722 0.064075574
0.061943199 0.0051009548 0.066069603
-0.034186356 0.01493072 0.064691409
-0.02611492 0.014185637 0.065089576
0.053842202 0.01477358 0.064290531
0.061682027 0.014282145 0.066162847
-0.031809073 0.024789978 0.06523113
-0.023408854 0.025614122 0.064839713
0.047932304 0.026418982 0.065011844
0.056145202 0.024404762 0.064573139
0.060658816 0.021356406 0.06784182
-0.030419091 0.031159231 0.068018064
-0.025779525 0.035578854 0.064521894
-0.015097001 0.035676267 0.065065697
0.037652563 0.038816933 0.064693622
0.043326136 0.034574687 0.064842738
0.053966131 0.034962948 0.064879961
-0.021497697 0.042319879 0.066286117
-0.01512186 0.04649739 0.064623348
-0.0059208977 0.04374497 0.064860955
0.0047926991 0.046281345 0.065081783
0.015424209 0.047193803 0.065683044
0.025584606 0.044885162 0.06510628
0.034677982 0.044324469 0.064447187
0.044686582 0.045499016 0.064901188
0.050651159 0.041471113 0.068087883
-0.011391114 0.051297825 0.068385914
-0.0049554175 0.052750874 0.065282926
0.0048839664 0.055863667 0.064865097
0.01533266 0.05710867 0.064954624
0.025896268 0.055523999 0.064630643
0.034573205 0.052584093 0.065547131
0.040305607 0.050646205 0.06907925
-0.0012949146 -0.040589496 0.071159273
0.0052357088 -0.041697733 0.07305187
0.015516832 -0.041574411 0.073379844
0.022149062 -0.040985312 0.072545961
-0.014429839 -0.033035923 0.072711311
-0.004914809 -0.035398424 0.073331177
0.0045183543 -0.035021041 0.074174859
0.015578991 -0.035409503 0.074093282
0.025579352 -0.035281837 0.073582716
0.034603864 -0.033986773 0.073135555
0.042611986 -0.031817276 0.072886266
-0.02346216 -0.02387869 0.073427752
-0.015283992 -0.024818746 0.073488623
-0.0071012052 -0.028355418 0.071973741
0.029905476 -0.029291023 0.071014762
0.035909548 -0.026965251 0.072746836
0.044808619 -0.024973512 0.074400127
0.051587228 -0.022760851 0.072870553
-0.031547356 -0.013433885 0.073282763
-0.024580467 -0.015064037 0.074182957
-0.018497204 -0.018373137 0.071572356
0.0467287 -0.016329842 0.07255815
0.054523185 -0.013817015 0.072761722
-0.033189513 -0.0043545235 0.073613629
-0.026855137 -0.004941172 0.072934359
0.055044226 -0.0044387314 0.073061168
0.061076246 -0.0033972026 0.072311901
-0.033155549 0.0050826501 0.074478514
-0.02814211 0.0051329881 0.072432376
0.056274127 0.0051631047 0.072780393
0.062561847 0.0052480893 0.072724745
-0.033329383 0.014015232 0.073696114
-0.028232198 0.014783907 0.072375521
0.056044322 0.014507458 0.072746977
0.062216088 0.014416268 0.072702996
-0.031922903 0.024672726 0.07347855
-0.026510263 0.025294805 0.073345281
0.048879433 0.028475229 0.071206607
0.055164833 0.025121892 0.072929695
0.060957618 0.021270201 0.071822897
-0.030451108 0.031692468 0.072183296
-0.024478897 0.035085402 0.073387749
-0.016683118 0.03743853 0.072195932
0.045547143 0.036057759 0.073272154
0.053811856 0.035065632 0.073524103
-0.021956911 0.042816453 0.072615936
-0.014551021 0.045508318 0.073179498
-0.0056844298 0.046452712 0.073096842
0.0040471018 0.048807085 0.072059102
0.015345293 0.049545925 0.071582355
0.026320517 0.04827648 0.0722747
0.035635747 0.045763399 0.0738075
0.044490963 0.044962849 0.07361529
0.050685532 0.041511375 0.072253913
-0.011490995 0.05137039 0.071852617
-0.0050953091 0.053077348 0.072734885
0.0053879553 0.05489891 0.073207736
0.015183849 0.055137418 0.073021062
0.025403859 0.054623708 0.073148638
0.035112604 0.053015999 0.072951235
0.040305607 0.050653495 0.072199285
