# .PCD v0.7 - Point Cloud Data file format
VERSION 0.7
FIELDS x y z
SIZE 4 4 4
TYPE F F F
COUNT 1 1 1
WIDTH 1314
HEIGHT 1
VIEWPOINT 0 0 0 1 0 0 0
POINTS 1314
DATA ascii
-0.074587613 -0.021875601 -0.0010246548
-0.066008195 -0.025029331 -0.0036334544
-0.055712894 -0.025029331 -0.0045226812
-0.043354668 -0.022238662 -0.00089204265
-0.034925941 -0.026354643 -0.00054221146
-0.023605734 -0.026745211 -0.00038105747
-0.017021108 -0.025505519 -0.00083114702
-0.0052659153 -0.028797626 -0.0015138135
0.003485091 -0.027479947 -0.0031975005
0.015324689 -0.028597867 -0.0015469141
0.025619989 -0.027671129 -0.0013617382
0.036603656 -0.027275981 -0.0010129618
0.04552424 -0.026854064 -0.0009825764
0.055605058 -0.026130125 -0.0011814088
0.065482281 -0.025451086 -0.00069437118
0.073493138 -0.024350444 -0.0005039096
0.084560595 -0.022786379 -0.00061122328
0.093458846 -0.02233937 -0.00055559725
0.10515119 -0.020956516 -0.00061122328
-0.073729672 -0.019881681 -0.00042217411
-0.065459959 -0.0190279 -0.00061122328
-0.053139068 -0.018693402 -0.00061122328
-0.048239514 -0.019881681 -0.00052659214
-0.013684647 -0.01825951 -0.00061122328
-0.0072280946 -0.014190403 -0.0010240652
0.0060589164 -0.01473403 -0.0054867752
0.016354218 -0.01473403 -0.0063384064
0.02664952 -0.01473403 -0.0066059493
0.036944821 -0.01473403 -0.0070097968
0.047240123 -0.01473403 -0.007613007
0.057535425 -0.01473403 -0.0081340298
0.067830727 -0.01473403 -0.0083451867
0.078126028 -0.01473403 -0.0080035813
0.08842133 -0.01473403 -0.0073520914
0.098716632 -0.01473403 -0.0065845028
0.10901193 -0.01473403 -0.0058313906
0.11483118 -0.018909898 -0.0012523857
0.12651396 -0.018207703 -0.001440055
0.13762221 -0.017219568 -0.00091379834
0.14552414 -0.015552744 -0.00052637793
0.0023643624 -0.0089312699 -0.00061122328
0.013780393 -0.0063284561 -0.00061122328
0.024863198 -0.0039820522 -0.0010718319
0.036944821 -0.0024969131 -0.0022841077
0.047240123 -0.0044387281 -0.0061578266
0.057535425 -0.0044387281 -0.0081391372
0.067830727 -0.0044387281 -0.0092300437
0.078126028 -0.0044387281 -0.0093625151
0.08842133 -0.0044387281 -0.0093646049
0.098716632 -0.0044387281 -0.0090563707
0.10901193 -0.0044387281 -0.0087154619
0.11930723 -0.0044387281 -0.00818507
0.12960254 -0.0044387281 -0.0073221549
0.13989784 -0.0044387281 -0.0054461583
0.14989029 -0.0095863789 -0.00061122328
0.15019664 -0.0060259104 -0.00056901725
0.047240123 0.0023792982 -0.00061122328
0.056445859 0.0049781902 -0.00061122328
0.067830727 0.0072009116 -0.0022772886
0.075552203 0.0077839643 -0.0031647906
0.08842133 0.0058565736 -0.0063093565
0.098716632 0.0058565736 -0.0066923536
0.10901193 0.0058565736 -0.0074225813
0.11930723 0.0058565736 -0.0078994408
0.12960254 0.0058565736 -0.0072318502
0.13989784 0.0058565736 -0.0049775466
0.14910491 0.0032827482 -0.00061122328
0.15019314 0.00070892274 -5.8993697e-05
0.078126028 0.010490462 -0.00061122328
0.084739581 0.011070456 -0.00059774984
0.096142806 0.012383267 -0.00061122328
0.10876983 0.016252741 -0.00067446509
0.11930723 0.016151875 -0.0032752678
0.12960254 0.016151875 -0.0042556971
0.13989784 0.016151875 -0.0030662864
0.14690508 0.01357805 -0.00061122328
0.11930723 0.021566078 -0.00061122328
0.12809835 0.027297711 -0.00082545978
0.13989784 0.026447177 -0.0013515763
0.14439158 0.022327643 -0.00057081226
0.13989784 0.031250775 -0.00054693781
-0.093474202 -0.033430446 0.0063631288
-0.08554437 -0.035106722 0.0044243596
-0.074796528 -0.035704095 0.0055372845
-0.065623298 -0.033310123 0.0051551717
-0.054551028 -0.031819321 0.0036110843
-0.044130679 -0.030805588 0.0027254326
-0.036920976 -0.030177692 0.0016667865
0.0073458254 -0.030017495 0.0019626021
-0.093752883 -0.025029331 0.0058373711
-0.086598799 -0.025029331 0.00031043962
-0.063680336 -0.025263872 0.0077079851
-0.054129001 -0.02539379 0.0060109794
-0.043896694 -0.024599174 0.0046081212
-0.035691872 -0.02496323 0.0036941369
-0.026148872 -0.025945131 0.002145539
-0.015722867 -0.025540981 0.0033838695
-0.0057313303 -0.026091337 0.0042576054
0.0046718279 -0.025274239 0.0054995967
0.015348066 -0.025866656 0.0057267472
0.025054814 -0.026231792 0.0064485543
0.035657912 -0.026595837 0.0062266318
0.046022937 -0.025584288 0.0058738687
0.054961603 -0.024883075 0.0054945485
0.063850671 -0.024059469 0.005059565
0.073814623 -0.023285232 0.0039198101
0.084560595 -0.022480747 0.0033932147
0.094952099 -0.022300515 0.0028853973
0.1051512 -0.021140415 0.0032495148
0.11158575 -0.02023074 0.0019626021
-0.093043074 -0.017094454 0.005947235
-0.086598799 -0.017307855 0.0016845018
-0.073729672 -0.01473403 0.0024400856
-0.065321952 -0.018202985 0.006684484
-0.05399701 -0.019524634 0.0052307481
-0.046622079 -0.019881681 0.002881702
-0.013884317 -0.018387992 0.0029961108
-0.0050085685 -0.01673308 0.006012449
0.0047720037 -0.017307853 0.007554288
0.01438389 -0.017593259 0.0091505563
0.049813941 -0.019881681 0.0098263808
0.054771345 -0.018388344 0.0093840463
0.06436564 -0.016780101 0.0091213742
0.074242026 -0.015718481 0.0084523829
0.084609032 -0.01571263 0.0084600234
0.095087998 -0.016952815 0.0082888547
0.1049241 -0.017942101 0.0080962563
0.11541379 -0.018124079 0.0059345583
0.1258219 -0.016255541 0.0067452001
0.13603711 -0.015159369 0.0063617574
0.14469694 -0.016907064 0.0058151949
0.15219697 -0.015256546 0.0064654872
-0.093262486 -0.0075273188 0.0069082575
-0.087587737 -0.0061546117 0.0036955005
-0.076303497 -0.0044387281 0.0047881417
-0.069731019 -0.0044387281 0.0096840784
-0.00095385313 -0.0095863789 0.0045364276
0.003485091 -0.0087887645 0.0054411562
0.014883226 -0.0061094854 0.0070043849
0.076839119 -0.0095863789 0.0099154897
0.081986763 -0.0095863789 0.0098560378
0.15489897 -0.0058966968 0.0075936262
-0.093726665 0.0032827482 0.0080351532
-0.086598799 0.0023438036 0.0049145222
-0.075812101 0.0066306395 0.0093975905
0.02664952 0.0028851479 0.0096840784
0.035218533 0.006543865 0.0087050013
0.047240123 0.0073218942 0.0060428297
0.054961599 0.0068269372 0.0028750263
0.15313508 0.0049739778 0.0063634925
-0.09273158 0.014302588 0.0091631254
-0.086033665 0.015136208 0.0088645406
0.054961599 0.010281086 0.0096840784
0.066088632 0.011191028 0.0074446164
0.075552195 0.012673885 0.0049499189
0.085643969 0.016317045 0.0070327795
0.094527319 0.016151875 0.003518255
0.15201589 0.014208145 0.0068456433
0.096906252 0.026447177 0.0091528408
0.10901193 0.026447177 0.0072428025
0.11930723 0.026447177 0.0017721988
0.14851032 0.026447177 0.0034818668
0.1508542 0.024646798 0.0069213454
0.12960254 0.036742479 0.0019773878
0.13989784 0.036742479 0.00054628775
0.14778385 0.035639413 0.0040307743
0.15043768 0.035123117 0.0079907253
0.12960254 0.047825485 0.0089231152
0.13989784 0.044463955 0.0025271568
0.14727354 0.045952331 0.0059787277
0.15019797 0.042895589 0.009501311
0.13989785 0.05291393 0.0066208057
0.14601322 0.053131834 0.0087404661
-0.095078737 -0.034669358 0.015923586
-0.085593872 -0.036796998 0.015738646
-0.074304327 -0.034002088 0.015933244
-0.069188915 -0.030176982 0.01420589
-0.097238682 -0.025029331 0.01553874
-0.068584993 -0.026207142 0.013893194
0.027164284 -0.02185883 0.011470279
0.035657909 -0.022028245 0.011883343
0.042092472 -0.021366745 0.011452746
-0.097313456 -0.017307855 0.015695971
-0.066981554 -0.016719779 0.017920321
0.018284582 -0.016664397 0.010670625
0.025203405 -0.016704833 0.015118394
0.035587426 -0.018236257 0.016739583
0.045703176 -0.01534598 0.01476361
0.054314472 -0.013433403 0.01155174
0.063197844 -0.012674975 0.010405751
0.09485589 -0.012160212 0.010441103
0.10599305 -0.012790683 0.01173115
0.11512556 -0.012789521 0.011863436
0.1244549 -0.012160212 0.010579687
0.1457608 -0.014088265 0.015043398
0.15310729 -0.014681723 0.015572581
-0.097527534 -0.0070125535 0.015483264
-0.065399915 -0.0070125535 0.01819453
0.018506937 -0.0070125535 0.015088605
0.02011995 -0.0095863789 0.01997938
0.049343538 -0.0095863789 0.017632239
0.055051766 -0.0066763004 0.015370613
0.064889215 -0.0077479314 0.011117155
0.074166298 -0.0054286607 0.010754135
0.084928289 -0.0051741069 0.010852832
0.094825506 -0.0054441318 0.012110017
0.10521074 -0.006608163 0.01540475
0.11562257 -0.0073178783 0.016316943
0.12545061 -0.0059038964 0.015070342
0.1361157 -0.005777006 0.014812216
0.14208359 -0.0086892005 0.016608775
0.15522523 -0.0058607636 0.01597023
-0.097696379 0.0032827482 0.015548665
-0.066042066 0.0057629049 0.01997938
0.019988939 0.0058565736 0.01997938
0.02664952 0.0058565736 0.014224306
0.059737332 0.00070892274 0.017405555
0.064291149 0.0041560382 0.015370267
0.075552203 0.0027679831 0.01189551
0.086289085 0.0035132351 0.013498341
0.094677396 0.0024259165 0.016818568
0.15380062 0.0045696609 0.016118642
-0.097797208 0.014417876 0.015653279
-0.076303497 0.016151875 0.013842363
-0.069592655 0.016151875 0.01997938
0.02664952 0.01283665 0.01997938
0.035392724 0.01675668 0.019466966
0.047240123 0.016151875 0.016459472
0.057535425 0.013848096 0.014062472
0.065724179 0.012310777 0.016557332
0.075552195 0.013613783 0.016876508
0.083145767 0.012066275 0.016515803
0.1527822 0.01495253 0.015940923
-0.094597042 0.023227315 0.017124033
-0.085968815 0.025026454 0.017169936
-0.076303497 0.023253515 0.01997938
0.047240123 0.020211548 0.01997938
0.057535425 0.021006152 0.01997938
0.067830727 0.021080524 0.01997938
0.078509957 0.026241191 0.01997938
0.08842133 0.026447177 0.013462529
0.15186931 0.025160262 0.016118642
0.08842133 0.037338942 0.01997938
0.10901193 0.038834244 0.01997938
0.15096396 0.035455566 0.01611864
0.12600468 0.04703778 0.01997938
0.14967595 0.049611598 0.016118642
0.150268 0.045040268 0.015813291
0.12960254 0.056956351 0.01997938
0.13704211 0.058251679 0.017235111
0.1468358 0.055154927 0.016360018
-0.095328063 -0.034903616 0.025137607
-0.085692853 -0.037412677 0.025127031
-0.074096486 -0.035434116 0.025017807
-0.068085507 -0.031369638 0.025934357
0.018928036 -0.030176982 0.029108956
0.02582331 -0.030779572 0.026650636
0.035518646 -0.031071931 0.026255969
0.044299632 -0.030314637 0.027682927
-0.097571671 -0.025029331 0.025127031
-0.065919071 -0.025459599 0.024917742
0.015303508 -0.024968993 0.026480569
0.025041159 -0.026676374 0.023627369
0.035657909 -0.026418954 0.022532374
0.046370074 -0.026584279 0.024542464
0.054775842 -0.024667943 0.026421722
0.060109243 -0.021964595 0.028120041
0.10772502 -0.020609885 0.027700856
0.11458855 -0.021398701 0.028465254
-0.09780477 -0.017307855 0.025127031
-0.065369278 -0.017307855 0.023313491
0.0093072876 -0.019881681 0.028385501
0.013793834 -0.017307855 0.025287174
0.023217753 -0.018165797 0.022048783
0.034370996 -0.019881681 0.020736866
0.046596665 -0.018594768 0.022219399
0.056394309 -0.017777916 0.024678245
0.062568411 -0.016019691 0.027529743
0.097391278 -0.015892521 0.028247351
0.10522645 -0.017422123 0.026593072
0.11644743 -0.017833874 0.025716463
0.12569302 -0.015908681 0.026712405
0.13433421 -0.011536221 0.028068377
0.14515987 -0.013719679 0.025310876
0.15283346 -0.014913728 0.025127029
-0.098190576 -0.0070125535 0.025127031
0.013945567 -0.0070125535 0.025430804
0.057980396 -0.0078704953 0.024262901
0.064595185 -0.0073802434 0.027492449
0.097165167 -0.0060099959 0.026401287
0.10516851 -0.0082887439 0.024681093
0.1167334 -0.0095863789 0.023326386
0.12702872 -0.0070125535 0.022406535
0.13650945 -0.0085201915 0.024913799
0.14199945 -0.0096832104 0.022945164
0.15463588 -0.0057256408 0.025127031
-0.098539308 0.0032827482 0.025127031
-0.066008195 0.0058565736 0.020127583
0.016354218 0.0058565736 0.023524322
0.067830727 0.0041458113 0.025997577
0.075552203 0.0077169016 0.026577512
0.08673241 0.005535861 0.026196688
0.095022634 0.00087188184 0.024125598
0.15327245 0.0045696609 0.025127029
-0.099354044 0.01357805 0.025127031
-0.066008195 0.016151875 0.027351551
0.02664952 0.016151875 0.022854052
0.075552203 0.011004224 0.02341672
0.083273679 0.011004224 0.021764323
0.15253556 0.013831875 0.025000691
-0.097354308 0.025040604 0.025615694
-0.076303497 0.026447177 0.024123065
0.036944821 0.026447177 0.027382225
0.047240123 0.026447177 0.025450356
0.057535425 0.026447177 0.024576105
0.067830727 0.026447177 0.023618832
0.078126028 0.026447177 0.020360038
0.1516079 0.025160266 0.025127031
0.15065135 0.035455566 0.025127031
0.10901193 0.04703778 0.028498419
0.14967358 0.04777316 0.025494719
0.15016621 0.042469304 0.024752518
0.12960254 0.058215633 0.022879424
0.13732401 0.059825569 0.025127031
0.14677395 0.055360995 0.025282796
-0.095097587 -0.034818992 0.03413542
-0.085941531 -0.037360948 0.03413542
-0.074831434 -0.037302259 0.034795489
-0.065053239 -0.033429582 0.034567032
0.017313117 -0.03100496 0.034600366
0.024939744 -0.033068568 0.033697162
0.036222167 -0.033061214 0.0339664
0.046290472 -0.03111949 0.033992194
0.051015303 -0.030176982 0.036709245
-0.09766759 -0.025029331 0.032848507
-0.061441027 -0.02604533 0.034052089
0.0080429139 -0.023457112 0.034708951
0.012661793 -0.027346766 0.033199567
0.049813941 -0.029619157 0.030274682
0.055700812 -0.027950531 0.033793762
0.062127985 -0.02355277 0.034428746
0.097952634 -0.021793863 0.036468465
0.10536964 -0.023071598 0.033960674
0.11540332 -0.023718849 0.034178291
0.12366753 -0.022003695 0.035009097
-0.097924873 -0.017307855 0.032848507
-0.06133958 -0.017307855 0.033409908
0.0060390364 -0.017675545 0.032708336
0.066945396 -0.016397865 0.033465445
0.07066007 -0.012604701 0.03634816
0.087498285 -0.013017679 0.035893053
0.093532361 -0.017361788 0.033306226
0.12824646 -0.018894836 0.033093303
0.13518561 -0.014161423 0.034147836
0.14486475 -0.013917556 0.03378547
0.15262908 -0.014797103 0.03413542
-0.098323859 -0.0070125535 0.032848507
-0.060562514 -0.0044387281 0.030274682
-0.055712894 -0.0044387281 0.03969761
0.0065917224 -0.0070125535 0.033136554
0.06819874 -0.0095863789 0.030274682
0.074004315 -0.0071895067 0.03555752
0.085849307 -0.0068824305 0.033501286
0.090213969 -0.0095863789 0.030274682
0.1543964 -0.0057256408 0.034135424
-0.098735794 0.0032827482 0.032848507
-0.061561473 0.0058565736 0.030274682
-0.055712894 0.0058565736 0.039588094
0.0060589164 0.0058565736 0.036986701
0.010473534 0.0058565736 0.030274682
0.075129144 0.0010515004 0.030484242
0.083837837 0.0010711998 0.030477254
0.15305015 0.0053957468 0.034014996
-0.099496827 0.01357805 0.032848507
-0.06488809 0.016151875 0.030274682
0.016738292 0.015771072 0.030660225
0.15231118 0.014864963 0.03413542
-0.098058157 0.025037063 0.032848507
-0.067029104 0.02464053 0.031821974
0.02664952 0.025435738 0.031653702
0.030228153 0.026447177 0.030274682
0.15152498 0.025160264 0.03413542
-0.086598799 0.031578764 0.030274682
-0.076303497 0.030128688 0.030274682
0.15076728 0.035455562 0.034135424
0.08842133 0.04703778 0.03545291
0.1496027 0.048324689 0.03413542
0.15020087 0.043227576 0.034101464
0.14678004 0.054781504 0.033992428
0.12960254 0.060906596 0.032848507
0.13732401 0.060437221 0.032848507
-0.071155846 -0.04015696 0.04829146
-0.095127605 -0.034863897 0.044430718
-0.084958605 -0.037870541 0.044341631
-0.075273968 -0.039025471 0.044173341
-0.064586133 -0.03734361 0.044086728
-0.056785647 -0.032627009 0.045218658
-0.041556854 -0.035324633 0.04924877
-0.035637058 -0.03686893 0.04938079
0.017287299 -0.031535093 0.044173341
0.024919618 -0.033812363 0.044885602
0.036080949 -0.033069395 0.044611678
0.04595321 -0.031566329 0.044430722
0.05279053 -0.030314995 0.04416677
-0.097826071 -0.025029331 0.043143809
-0.054433495 -0.026605383 0.046491858
0.0073311836 -0.023757286 0.044563014
0.012158951 -0.028125837 0.044430718
0.057127669 -0.028571375 0.044430725
0.063050866 -0.024197614 0.044430718
0.096517511 -0.021819925 0.044430718
0.1054913 -0.024777452 0.044433441
0.11589818 -0.025151497 0.044264518
0.12454765 -0.022539359 0.044430722
-0.098089844 -0.017307855 0.043143809
-0.056285184 -0.017307855 0.043674361
0.0026732311 -0.016033128 0.0446647
0.067889929 -0.018648844 0.044430725
0.071356334 -0.01327489 0.044443216
0.087286361 -0.014663172 0.044430718
0.092215173 -0.019182367 0.045031402
0.12940657 -0.019749284 0.044430718
0.13556924 -0.015545009 0.044430718
0.14527589 -0.014488215 0.044430718
0.15253988 -0.014689019 0.044430722
-0.098574974 -0.0070125535 0.043143809
-0.055456959 -0.0054007098 0.040569983
0.0010512806 -0.0076560099 0.043988761
0.0757965 -0.0074655819 0.044639055
0.082007848 -0.0082860282 0.044428326
0.15420142 -0.0057256408 0.044430718
-0.099101618 0.0032827482 0.043143809
-0.05526036 0.0072764456 0.040569983
-0.045417592 0.0058565736 0.049398512
0.0039932728 0.0058565736 0.040569983
0.15302986 0.005397297 0.044568978
-0.099691577 0.01357805 0.043143809
-0.057159673 0.016151875 0.041406877
-0.045417592 0.016151875 0.04649283
-0.0042363852 0.016151875 0.049443312
0.0066529913 0.015460506 0.041141879
0.15219367 0.014864963 0.044430722
-0.098427199 0.025509495 0.043143809
-0.062086463 0.026447177 0.040569983
-0.055712894 0.026447177 0.045760639
0.016354218 0.022932693 0.040569983
0.020052314 0.026447177 0.040569983
0.15151848 0.025160264 0.044430714
-0.086598799 0.034389272 0.040569983
-0.076303497 0.035736687 0.043426607
0.02664952 0.030597985 0.040569983
0.047240123 0.036368594 0.040569983
0.15086791 0.035455566 0.044430714
0.067830727 0.040882468 0.040569983
0.086473346 0.04825788 0.040569983
0.14965624 0.048324689 0.044430722
0.15030161 0.043811422 0.044430718
0.10901193 0.054385319 0.040569983
0.14671636 0.054944985 0.044393193
0.12960254 0.062485781 0.043073542
0.13624787 0.061424326 0.043658573
-0.072067238 -0.040445749 0.054776959
-0.065741569 -0.040539391 0.055746675
-0.026113901 -0.040046081 0.054726023
-0.095187612 -0.034593057 0.054631323
-0.08518523 -0.037285879 0.054368693
-0.077650048 -0.038709059 0.05575709
-0.062107727 -0.038842779 0.052091952
-0.054223098 -0.035343986 0.05461799
-0.043422848 -0.03391372 0.053886045
-0.035108816 -0.035269696 0.052716028
-0.02626328 -0.035590291 0.05440063
-0.015672848 -0.034635123 0.056220178
-0.0073146266 -0.032673784 0.056900464
0.016841147 -0.03083127 0.055177912
0.024518371 -0.033173908 0.054833528
0.036254693 -0.032946058 0.054860007
0.045953207 -0.031639416 0.05472602
0.052265681 -0.030275282 0.053933937
-0.098012201 -0.026058858 0.056012936
-0.050719213 -0.025544096 0.051213723
-0.044230621 -0.025142832 0.05496528
-0.035228241 -0.025880108 0.056743059
-0.026629798 -0.02689903 0.058182802
-0.015025306 -0.026798822 0.058636542
-0.0069052228 -0.025087148 0.057378452
0.0076721706 -0.023391489 0.055172451
0.012292925 -0.027751647 0.055016231
0.056339741 -0.028035523 0.055311404
0.062047068 -0.023473294 0.054385304
0.098230287 -0.02170082 0.053238165
0.10511979 -0.023707489 0.054906022
0.11520279 -0.024553498 0.054145738
0.12433909 -0.022178309 0.054534122
-0.098229811 -0.017307855 0.053439111
-0.050950363 -0.017307855 0.051307857
-0.045096271 -0.018036628 0.056557205
-0.0042363852 -0.019881681 0.059901863
0.0024544811 -0.01662528 0.055025276
0.067171849 -0.01677273 0.055173624
0.070572063 -0.012300919 0.053111888
0.087537371 -0.013023575 0.05419039
0.093517169 -0.017888909 0.055507757
0.12893856 -0.019409424 0.054726023
0.1354873 -0.014964893 0.054893721
0.14510399 -0.013895773 0.055071149
0.15247777 -0.014721997 0.054726027
-0.098775342 -0.0070125535 0.053439111
-0.043742862 -0.0066448646 0.055506412
-0.0029942871 -0.0064977887 0.055864282
0.00017613173 -0.0095863789 0.050865285
0.074439749 -0.0064901798 0.054952737
0.082997523 -0.0072592613 0.055304717
0.15403087 -0.0057256408 0.054726027
-0.099284068 0.0032827482 0.053439111
-0.044467803 0.0039416626 0.050865285
-0.03512229 0.0058565736 0.055911697
-0.024826989 0.0058565736 0.058975831
-0.014531687 0.0058565736 0.057434417
-0.0043439819 0.0054907105 0.050774485
0.15304647 0.0055625946 0.054726023
-0.10005838 0.016151875 0.056012936
-0.099757627 0.012720108 0.052581172
-0.036327604 0.016151875 0.051543944
-0.024826989 0.016151875 0.055381753
-0.014531687 0.016151875 0.054096699
-0.0069928169 0.016151875 0.050865285
0.15235047 0.014864963 0.054726023
-0.10012206 0.021299526 0.053439111
-0.098365664 0.027605176 0.052581172
-0.045051824 0.026447177 0.050699256
-0.03512229 0.026447177 0.054925211
-0.024826989 0.026447177 0.057530954
-0.014531687 0.026447177 0.057370067
-0.0042363852 0.023799583 0.052967239
0.0060589164 0.025775217 0.051465817
0.15143372 0.025160264 0.054726031
-0.0968941 0.031226248 0.057800088
-0.086743489 0.036787972 0.050683897
-0.076303497 0.038168967 0.050865285
0.15075797 0.035455566 0.054726027
0.14949709 0.049611598 0.054726023
0.15023416 0.044724289 0.054726027
0.14698237 0.054945838 0.054583035
0.12960254 0.063481584 0.050865285
0.13681482 0.061923176 0.051877547
-0.070760861 -0.040363453 0.061160587
-0.065102026 -0.040806983 0.064968325
-0.05812791 -0.040414102 0.067189887
-0.095465161 -0.034473926 0.065184906
-0.085291654 -0.034876749 0.06472335
-0.075653143 -0.037444085 0.065506577
-0.05339019 -0.038228001 0.06432604
-0.044648103 -0.035489004 0.065534368
-0.03651008 -0.035537183 0.065986507
-0.026542872 -0.038422242 0.062876478
-0.016201766 -0.037744991 0.062631354
-0.0051308414 -0.035256777 0.064896509
0.0049015977 -0.033641081 0.065443799
0.014522604 -0.033076737 0.064194053
0.025362607 -0.033990312 0.065021321
0.035657912 -0.03329828 0.065021321
0.04521266 -0.031909987 0.064984486
0.050677516 -0.030176982 0.066308238
-0.098225497 -0.02631624 0.065021321
-0.033108424 -0.022076754 0.060848244
-0.025255961 -0.022896633 0.061701708
-0.016331015 -0.022963829 0.061742194
-0.0093840361 -0.020801559 0.061160587
0.0040773302 -0.025972964 0.060938608
0.055977821 -0.026272489 0.065202832
0.060546104 -0.021665828 0.063541815
0.10613792 -0.021946058 0.064605974
0.1154465 -0.023199003 0.065021314
0.12344753 -0.021856057 0.065045856
-0.098499864 -0.017307855 0.063734412
-0.040269941 -0.016020939 0.060476895
-0.035528041 -0.017292129 0.062466018
-0.026541159 -0.017764848 0.064594381
-0.016248582 -0.017950786 0.064595245
-0.0060530878 -0.016988395 0.061364561
0.064456485 -0.015527715 0.064690284
0.089087784 -0.011454068 0.061160587
0.094909526 -0.015300569 0.064994484
0.10172492 -0.019574936 0.066423245
0.12830289 -0.0191877 0.06487833
0.13559599 -0.014186597 0.065003514
0.14502661 -0.014501523 0.065411806
0.15202966 -0.015641261 0.06466803
-0.098916337 -0.0070125535 0.063734412
-0.035244595 -0.0068622231 0.061258912
-0.027400814 -0.0070125535 0.063757308
-0.015545337 -0.0056919185 0.0630164
-0.0085285977 -0.0072479062 0.061485529
0.068144657 -0.0087471139 0.066175565
0.073141471 -0.0046188054 0.063998856
0.085787088 -0.0067734714 0.064978391
0.090452418 -0.0095863789 0.068882063
0.15395164 -0.0057256408 0.065021329
-0.099361002 0.0032827482 0.063734412
-0.024826989 0.00011982024 0.061160587
0.15318331 0.0045696609 0.065021329
-0.10012078 0.016151875 0.063734412
-0.099704124 0.011004224 0.063734412
0.15254876 0.013794246 0.065090619
-0.10038046 0.021299526 0.063734412
-0.099809498 0.026447177 0.063734412
-0.014531687 0.029474795 0.061160587
0.15162481 0.025160264 0.065021321
-0.096096769 0.032951564 0.063219652
-0.086598799 0.039259866 0.061160587
-0.055712894 0.037718222 0.061160587
-0.03512229 0.031856135 0.061160587
-0.0042363852 0.030773595 0.061160587
0.0060589164 0.03272137 0.061160587
0.016354218 0.034937516 0.061160587
0.027075499 0.036685959 0.061611652
0.036944821 0.038205832 0.061160587
0.15092166 0.035455562 0.065021321
-0.076303497 0.040974572 0.061160587
0.047240123 0.040965378 0.061160587
0.057535425 0.044005215 0.061160587
0.067830727 0.046286613 0.061160587
0.070903793 0.04703778 0.061160587
0.14933531 0.049611598 0.065021321
0.15032557 0.04490371 0.065021321
0.08842133 0.054784328 0.061160587
0.14682308 0.054817054 0.06487833
0.10901193 0.060084969 0.061160587
0.12960254 0.064420521 0.061160587
0.13989784 0.061219163 0.063734412
-0.062759764 -0.04048831 0.073340371
-0.055060416 -0.04053925 0.075964525
-0.095216826 -0.03542307 0.075145036
-0.085678317 -0.034065649 0.075211622
-0.074829109 -0.034633413 0.07521797
-0.066579267 -0.038448576 0.076740079
-0.051423185 -0.039696787 0.072313838
-0.043961205 -0.038080715 0.075136989
-0.035152335 -0.037085835 0.07608974
-0.026113877 -0.037750468 0.075641863
-0.015638018 -0.037967619 0.075107127
-0.0057862666 -0.0374032 0.075392328
0.0052643865 -0.035993535 0.075602598
0.014602763 -0.03487109 0.075030647
0.025362603 -0.034115721 0.075316623
0.036039479 -0.033114098 0.075738519
0.045449391 -0.032493249 0.07529524
0.054676197 -0.030632621 0.075329274
0.061216619 -0.03029228 0.079019725
-0.098310202 -0.025887271 0.07317178
0.057544276 -0.027516443 0.07231462
0.063867666 -0.025432579 0.075780846
0.071917586 -0.023983065 0.07897567
0.10690106 -0.021762881 0.075316615
0.1154465 -0.024008991 0.07531663
0.1249023 -0.022466341 0.075421788
-0.098621234 -0.017307855 0.074029714
0.065179318 -0.015774816 0.073989332
0.073978022 -0.017254526 0.078243241
0.096031614 -0.014406317 0.075012363
0.1023334 -0.019205123 0.075316623
0.12927812 -0.019629627 0.074436441
0.13512778 -0.015563069 0.075457871
0.1446766 -0.016210312 0.075528912
0.15235443 -0.015648825 0.07531663
-0.099075884 -0.0070125535 0.074029714
0.067828827 -0.0085834637 0.071974739
0.076052994 -0.0065524974 0.073108718
0.086483419 -0.0081654806 0.074314944
0.090939209 -0.0096239038 0.072742805
0.15374584 -0.0057256408 0.075316623
-0.099562228 0.0032827482 0.074029714
0.15302764 0.0053016748 0.075519823
-0.10025307 0.014435992 0.074887656
-0.099868342 0.011004224 0.071455888
0.15245777 0.014590002 0.075089522
-0.10044967 0.023873352 0.074029714
0.15176567 0.025160266 0.075316623
-0.096927218 0.033555064 0.073514953
-0.014531687 0.035867512 0.074172311
-0.0042363852 0.034981385 0.071455888
0.0060589164 0.035095677 0.071455888
0.016354218 0.035736129 0.071455888
0.026377445 0.036777161 0.071907446
0.036944821 0.037442856 0.074836314
0.047240123 0.039644063 0.071455888
0.15107508 0.035455562 0.075316623
-0.086598799 0.041081622 0.071455888
-0.076303497 0.043289438 0.071455888
0.057535425 0.041961074 0.071455888
0.067830727 0.0456267 0.071455888
0.071266681 0.04703778 0.071455888
0.14928582 0.049611598 0.07531663
0.15038683 0.04502913 0.075316623
0.14644317 0.055062197 0.075075313
0.12960254 0.064748093 0.071455888
0.13989784 0.061051071 0.074029714
-0.053026065 -0.04042523 0.084577285
-0.04614627 -0.040348973 0.087632075
-0.095615737 -0.035307232 0.085611932
-0.085785694 -0.034764815 0.085616708
-0.074192248 -0.032318749 0.085220538
-0.065019146 -0.036788035 0.085456558
-0.057257187 -0.039641913 0.087413609
-0.042522036 -0.039514571 0.084003277
-0.03512229 -0.039143078 0.085611932
-0.026113898 -0.038713738 0.085611917
-0.015652264 -0.037872516 0.085386984
-0.0055232979 -0.036677975 0.085611932
0.0050788117 -0.035805147 0.085384838
0.014423671 -0.034958266 0.085729718
0.025362611 -0.033931844 0.085611925
0.036021199 -0.032940485 0.085611932
0.045953207 -0.032279827 0.085611917
0.054961603 -0.031691916 0.085611932
0.06359423 -0.030529257 0.085911877
0.070404544 -0.030114159 0.089472674
-0.098326616 -0.025029331 0.084325016
0.067187272 -0.029631365 0.083681561
0.07504604 -0.02720801 0.084208913
0.084533669 -0.025428871 0.087775826
0.093350977 -0.021608103 0.089021057
0.10599764 -0.022085017 0.08608833
0.11616483 -0.024868177 0.085069023
0.12581109 -0.022775356 0.08546941
-0.098452918 -0.017307855 0.084325016
0.078126028 -0.019881681 0.080526859
0.085154109 -0.017363757 0.082192577
0.095830895 -0.017921703 0.084531173
0.10155521 -0.019672889 0.08417552
0.12983464 -0.019881681 0.089472674
0.13508675 -0.016957656 0.085219741
0.14477177 -0.017759131 0.085611939
0.15266898 -0.016171679 0.085708395
-0.099124938 -0.0070125535 0.084325016
0.15385842 -0.0057256408 0.085611917
-0.099737994 0.0032827482 0.084325016
0.15304749 0.0052960734 0.085408725
-0.10037655 0.01357805 0.084325016
0.15244655 0.014586164 0.085839041
-0.10079387 0.023873352 0.084325016
0.15187575 0.025160264 0.085611932
-0.097358458 0.033931356 0.083810255
-0.024826989 0.038927883 0.08175119
-0.014531687 0.03786546 0.08175119
-0.0030649356 0.036836892 0.081174046
0.0060589164 0.036428716 0.086013883
0.013780393 0.035436977 0.084325016
0.024075694 0.035069991 0.084325016
0.034370996 0.035396382 0.084325016
0.04572827 0.036513712 0.084231928
0.054961599 0.038536116 0.084325016
0.15127361 0.03545557 0.085611925
-0.086598799 0.042302594 0.08175119
-0.076303497 0.04485482 0.08175119
-0.066008195 0.044976115 0.08175119
-0.055712894 0.043602377 0.08175119
-0.045417592 0.041786522 0.08175119
-0.03512229 0.040239707 0.08175119
0.067830727 0.043603823 0.08175119
0.076241963 0.048036948 0.08175119
0.14917193 0.049611598 0.085611925
0.15040965 0.044965811 0.085611932
0.08842133 0.054849371 0.08175119
0.14638519 0.054832514 0.085611932
0.10901193 0.061764136 0.08175119
0.12960254 0.064672217 0.08175119
0.13989784 0.060741045 0.084325016
-0.060860544 -0.040045194 0.099767976
-0.05215333 -0.040262945 0.094234355
-0.04431612 -0.040422805 0.09510076
-0.037696116 -0.040040992 0.093333401
-0.095602334 -0.035466034 0.095897466
-0.085704543 -0.036645178 0.095541045
-0.073300704 -0.035172299 0.094555937
-0.065258279 -0.037639353 0.095363036
-0.055455506 -0.039721634 0.096422002
-0.044130679 -0.039968699 0.099767976
-0.034607526 -0.039628118 0.096422002
-0.026113901 -0.038790397 0.095907234
-0.016264973 -0.037724521 0.096008249
-0.0055232979 -0.036821116 0.095907226
0.0047720037 -0.036115728 0.095907241
0.015188884 -0.035370946 0.095774002
0.025362607 -0.034542456 0.095907226
0.036066834 -0.033476759 0.095535457
0.045516428 -0.032557346 0.096324794
0.054961603 -0.031802006 0.095907234
0.064723715 -0.030665893 0.09570127
0.07077264 -0.030155892 0.095036201
-0.098325498 -0.025029331 0.094620317
0.075786188 -0.029752467 0.096258201
0.085113913 -0.028443277 0.095366679
0.094788834 -0.025511926 0.09512233
0.10448999 -0.023741953 0.095980957
0.11594305 -0.023220113 0.096407555
0.12344979 -0.021892061 0.094472885
-0.098620914 -0.017307855 0.094620317
0.12739916 -0.018875344 0.096385188
0.13504244 -0.016613469 0.095363766
0.14503019 -0.018712513 0.096279345
0.15270619 -0.016284613 0.095932268
-0.099317476 -0.0070125535 0.094620317
0.15381767 -0.0057256408 0.095907226
-0.099750459 0.0032827482 0.094620317
0.15307221 0.0048852344 0.09613435
-0.10034141 0.01357805 0.094620317
0.1525616 0.013921528 0.09547393
-0.10091458 0.023873352 0.094620317
0.15194134 0.025160266 0.095907234
-0.097356908 0.034646045 0.094620317
-0.024826989 0.03969869 0.092046492
-0.014531687 0.038973227 0.092046492
-0.0042363852 0.038297862 0.092046492
0.0065813265 0.037137151 0.093762383
0.013651731 0.036476828 0.095773861
0.024075694 0.035979703 0.096303128
0.035092991 0.036217488 0.096069306
0.045186684 0.036734939 0.094342604
0.054961599 0.03888528 0.094620317
0.15146661 0.035455566 0.095907226
-0.086598799 0.043052465 0.092046492
-0.076303497 0.04545702 0.092046492
-0.066008195 0.045029655 0.092046492
-0.055712894 0.043153718 0.092046492
-0.045417592 0.041493371 0.092046492
-0.03512229 0.040497705 0.092046492
0.067830727 0.042821497 0.092046492
0.077692136 0.047237173 0.093299232
0.14919993 0.049611598 0.095907226
0.15050071 0.045042671 0.095907226
0.08842133 0.053172097 0.092046492
0.14618383 0.054666232 0.095907226
0.12960254 0.064037986 0.094620317
0.13631952 0.061893467 0.095037185
-0.072067186 -0.040499203 0.10652106
-0.064357989 -0.040567033 0.10501409
-0.058286719 -0.040057182 0.10234179
-0.095712297 -0.035543021 0.10491562
-0.084799185 -0.038398802 0.10408848
-0.076017521 -0.039173894 0.10434365
-0.068582021 -0.039884664 0.10234179
-0.053532261 -0.038819835 0.10579129
-0.044264622 -0.038561717 0.10578705
-0.035379674 -0.038802285 0.10529821
-0.026113903 -0.03890913 0.10491562
-0.015060348 -0.038063131 0.10493959
-0.0055232979 -0.037158992 0.10491562
0.0047720037 -0.036436599 0.10491562
0.015587982 -0.035597123 0.10458156
0.02469516 -0.034985423 0.10509947
0.035657912 -0.034009427 0.10491562
0.046861622 -0.033028431 0.10514659
0.054961603 -0.032206252 0.10491562
0.063969992 -0.031106208 0.10491561
0.074038938 -0.03027783 0.10543506
-0.09829092 -0.025029331 0.10491562
0.077268094 -0.029769769 0.10319974
0.084560603 -0.029243678 0.10491562
0.095638357 -0.028023589 0.10444255
0.10544876 -0.026686205 0.1048649
0.11572081 -0.02372242 0.10525261
0.12188105 -0.021788716 0.10856418
0.14761934 -0.0202165 0.10491562
0.15019314 -0.0201343 0.10748944
-0.098755829 -0.017307855 0.10491562
0.12523222 -0.018787792 0.10452557
0.13732401 -0.017449467 0.10401651
0.14503562 -0.019393418 0.10465824
0.15247676 -0.016751437 0.10486926
-0.099496432 -0.0070125535 0.10491562
0.15379959 -0.0057256408 0.10491562
-0.10007024 0.0058565736 0.10491562
-0.099894077 0.00070892274 0.10491562
0.15315804 0.0045696609 0.10491562
-0.10055049 0.01357805 0.10491562
0.15263471 0.014056362 0.10479984
-0.10087536 0.023873352 0.10491562
0.15196848 0.025160268 0.10491562
-0.097420894 0.034699023 0.10491562
-0.060860544 0.039520234 0.10748944
-0.052297324 0.037704255 0.10576642
-0.04284377 0.037029285 0.10526832
-0.03512229 0.03701625 0.10528994
-0.027400814 0.037098505 0.10546571
-0.016490746 0.03710065 0.10592634
-0.0068102106 0.037320536 0.10616568
0.003485091 0.037892401 0.10491562
0.013780393 0.037768774 0.10491562
0.024075694 0.037851933 0.10491562
0.034370996 0.038362358 0.10491562
0.043808356 0.038996141 0.10405768
0.15176117 0.035455566 0.10491562
-0.086598799 0.04338932 0.10234179
-0.076303497 0.04515183 0.10234179
-0.064229302 0.042034265 0.10436095
0.047240123 0.04002808 0.10748944
0.054961599 0.040746406 0.10491562
0.067830727 0.043154478 0.10234179
0.078126028 0.045743644 0.10234179
0.086506724 0.047768369 0.10360537
0.14915541 0.049611598 0.10491562
0.15054369 0.045377817 0.10486552
0.098716632 0.05407612 0.10234179
0.10699308 0.058353581 0.10234179
0.13989784 0.059825778 0.10491562
0.1459395 0.054467719 0.10491563
0.11930723 0.063127756 0.10234179
0.12960254 0.063350946 0.10491562
0.13420628 0.06231783 0.10491562
-0.075369671 -0.040947467 0.11421893
-0.063880019 -0.041078661 0.11403827
-0.095695101 -0.035534471 0.113924
-0.08531189 -0.039410502 0.113924
-0.078877322 -0.039806273 0.11135019
-0.054112695 -0.037584297 0.11424285
-0.044131212 -0.034145433 0.11415186
-0.034642793 -0.034872703 0.11458363
-0.026449047 -0.037060075 0.11484695
-0.015234947 -0.037980828 0.11414519
-0.0055232979 -0.037327312 0.113924
0.0047720037 -0.036441743 0.11392401
0.015581999 -0.035675641 0.11363802
0.024694819 -0.035174962 0.11461458
0.035657912 -0.034383118 0.113924
0.045953207 -0.033489171 0.113924
0.054623403 -0.032691956 0.11382946
0.063969992 -0.031610306 0.113924
0.074737124 -0.030437876 0.11381338
-0.098409474 -0.025029331 0.11521092
-0.040925577 -0.028175414 0.11777636
-0.035884481 -0.026972704 0.11843669
0.078126028 -0.029812656 0.11649783
0.084560588 -0.029191216 0.113924
0.095479332 -0.027922988 0.11473846
0.10522908 -0.027677741 0.11433714
0.11612754 -0.0258279 0.1137203
0.12502614 -0.022452313 0.11470007
0.14761932 -0.020659592 0.11392401
0.15019314 -0.020446759 0.113924
-0.09883523 -0.017307855 0.11521092
0.12960254 -0.019881681 0.11146248
0.13612944 -0.018933918 0.11521091
0.14427631 -0.019635104 0.11397071
0.15325385 -0.016512671 0.113924
-0.099463329 -0.0070125535 0.11521092
0.1539297 -0.0057256408 0.113924
-0.10015499 0.0058565736 0.11521092
-0.099902347 0.00070892274 0.11521092
0.15317455 0.0045696609 0.113924
-0.1006716 0.01357805 0.11521092
0.15267919 0.014451161 0.113924
-0.10087433 0.023873352 0.11521092
0.15209928 0.025160264 0.113924
-0.097529165 0.034792833 0.11521092
-0.060860544 0.037804745 0.11521092
-0.054824784 0.036189999 0.11463151
-0.042843767 0.034779914 0.11521092
-0.03512229 0.034447499 0.11521092
-0.027400814 0.034330875 0.11521092
-0.017105512 0.034303412 0.11521092
-0.0068102106 0.034799647 0.11521092
0.0039533363 0.035739012 0.11520089
0.014423849 0.036488861 0.11581323
0.025109511 0.036902759 0.11647312
0.033942029 0.037632253 0.11659729
0.044666298 0.03873574 0.11521092
0.054961603 0.038641106 0.11778475
0.063541017 0.038988933 0.11778475
0.075552203 0.039248139 0.11778475
0.083273679 0.03995356 0.11778475
0.15174831 0.035455562 0.113924
-0.086598799 0.043644145 0.1126371
-0.076303497 0.044640392 0.1126371
-0.066008195 0.040342003 0.11521092
0.054961599 0.040358506 0.1126371
0.065256901 0.041078985 0.1126371
0.075552203 0.041423917 0.1126371
0.0856001 0.041929778 0.113965
0.095903881 0.044641092 0.11545809
0.10169613 0.04703778 0.11778475
0.14915456 0.049096834 0.11469616
0.15057927 0.044845201 0.11366663
0.10901193 0.05684787 0.11138291
0.11021084 0.057333082 0.1126371
0.13989784 0.059707366 0.11521092
0.14597581 0.054317854 0.11388093
0.11930723 0.061803028 0.1126371
0.12960254 0.062845923 0.11521092
0.13350162 0.062180799 0.11521092
-0.075534105 -0.040950794 0.12435502
-0.064072661 -0.041062046 0.12417505
-0.095737748 -0.035524562 0.1242193
-0.085311875 -0.039331522 0.12421931
-0.078877322 -0.039724477 0.12808004
-0.060860544 -0.039579026 0.12808004
-0.054125141 -0.036225904 0.124754
-0.047285564 -0.031111451 0.12336987
-0.024189152 -0.032729521 0.12303001
-0.016062178 -0.035741683 0.12475166
-0.0055232979 -0.03626043 0.12421931
0.0047720037 -0.036214817 0.12421931
0.015067305 -0.035941593 0.12421931
0.024793236 -0.035182476 0.12439658
0.035657909 -0.034156721 0.12421929
0.04595321 -0.03362529 0.12421931
0.054611716 -0.032638211 0.12430675
0.063969992 -0.03147785 0.1242193
0.072533779 -0.03029711 0.12395688
-0.098676465 -0.025887271 0.12636417
-0.042830307 -0.027150715 0.12489627
-0.035087693 -0.024130177 0.12379653
-0.026304495 -0.024369122 0.12512419
0.077022962 -0.029540684 0.12477085
0.084560595 -0.028724989 0.12421929
0.094608784 -0.027600275 0.12465006
0.10515121 -0.027217356 0.1242193
0.1154465 -0.026406532 0.1242193
0.12549508 -0.023822574 0.12425577
0.13181408 -0.021098122 0.12499145
0.14761932 -0.020292122 0.12421931
0.15019314 -0.020371988 0.12421931
-0.09906891 -0.017307855 0.12550622
0.13633654 -0.018932736 0.12440931
0.14468583 -0.01901211 0.12421932
0.15344889 -0.016555738 0.1242193
-0.09958832 -0.0070125535 0.12550622
0.1541165 -0.0057256408 0.12421931
-0.10023168 0.0032827482 0.12550622
0.15325734 0.0045696609 0.12421931
-0.10084354 0.01357805 0.12550622
0.15266936 0.014510512 0.12421931
-0.10110208 0.023873352 0.12550622
0.15195307 0.025160264 0.12421931
-0.09782514 0.034993213 0.12507707
-0.060860544 0.038326196 0.12550622
-0.054502696 0.036271881 0.12580676
-0.042843767 0.034399938 0.12550622
-0.03512229 0.033707559 0.12550622
-0.027400814 0.033401947 0.12550622
-0.017105512 0.033322643 0.12550622
-0.0068102106 0.033309959 0.12550622
0.0051464061 0.033908151 0.12356624
0.015067306 0.03429006 0.12421091
0.02484093 0.034682613 0.12471338
0.035812616 0.035701051 0.12380332
0.045953203 0.035930127 0.1244725
0.054839443 0.036703955 0.12398122
0.062931716 0.036956966 0.12502389
0.074522674 0.037709028 0.12602098
0.085847512 0.038978279 0.12550622
0.15139812 0.035455566 0.12421931
-0.086598799 0.044175804 0.1229324
-0.076303497 0.044965044 0.1229324
-0.066008195 0.041260302 0.12693696
0.096488193 0.04169517 0.12550622
0.10415595 0.046759244 0.12495688
0.1492428 0.048324689 0.12421931
0.15045191 0.043893799 0.1242193
0.10901193 0.052364856 0.1229324
0.11381392 0.057333082 0.1229324
0.13989784 0.059754409 0.12550622
0.14591177 0.054409217 0.12421931
0.11930723 0.060652494 0.1229324
0.12960254 0.06250409 0.12583141
0.13352305 0.062000211 0.12464829
-0.072013788 -0.040306486 0.13053384
-0.067647725 -0.040459089 0.13060121
-0.095673591 -0.035519551 0.134744
-0.085509174 -0.03679648 0.13419536
-0.075588837 -0.037335947 0.13561717
-0.063886151 -0.037650254 0.13562579
-0.054850657 -0.033237055 0.13447341
-0.048991829 -0.030176982 0.13065389
-0.02223371 -0.031022459 0.13399985
-0.016024692 -0.034076083 0.1345083
-0.0056250659 -0.035266031 0.13440333
0.0048352415 -0.035214737 0.13430455
0.015193324 -0.035003975 0.13370287
0.025362605 -0.034466635 0.13451461
0.036151621 -0.03322855 0.13484666
0.045984503 -0.032620486 0.13417296
0.054584879 -0.031632267 0.13421763
0.064511329 -0.030420799 0.13486154
0.071383871 -0.030160611 0.13271621
-0.098971084 -0.02631624 0.13451461
-0.050565243 -0.028464839 0.13798693
-0.044350382 -0.02601047 0.13484009
-0.035317823 -0.025524512 0.13436028
-0.027400814 -0.026893778 0.1342608
0.075552203 -0.029383162 0.13533357
0.085011005 -0.027406655 0.13495412
0.094673127 -0.025132256 0.13496709
0.10455935 -0.026119128 0.13513441
0.11555588 -0.027468096 0.13488267
0.12591386 -0.025598088 0.13462323
0.13297406 -0.021932736 0.13442178
0.14761932 -0.020251371 0.13451461
0.15019314 -0.020516567 0.13451461
-0.099350899 -0.017307855 0.13580152
0.13774055 -0.019001093 0.13451461
0.14479406 -0.018866565 0.13451461
0.15366071 -0.016606862 0.13451461
-0.099741019 -0.0070125535 0.13580152
0.15444516 -0.0057256408 0.13451463
-0.10034752 0.0032827482 0.13580152
0.15349175 0.0045696609 0.1345146
-0.10096234 0.01357805 0.13580152
0.15269081 0.014581568 0.13451461
-0.10137882 0.023873352 0.13580152
0.15198989 0.025160264 0.1345146
-0.10024112 0.031594828 0.13837534
-0.097939454 0.035596009 0.13451461
-0.052590065 0.037358016 0.13541096
-0.044062804 0.035367116 0.13631628
-0.03512229 0.034022033 0.13580152
-0.027400814 0.033890296 0.13580152
-0.017105512 0.033895943 0.13580152
-0.0055232979 0.033793181 0.13580154
0.0047720037 0.03379349 0.13451461
0.015067305 0.033816542 0.1345146
0.025095182 0.03417293 0.13487835
0.035657912 0.034652159 0.13451461
0.045953207 0.035130695 0.13451461
0.054961603 0.035817444 0.13451461
0.064315289 0.036643192 0.13453934
0.0738976 0.037689108 0.13506615
0.085847504 0.038842048 0.13580152
0.093568981 0.039939106 0.13837534
0.15134695 0.035455566 0.13451461
-0.086598799 0.044995204 0.13322771
-0.076303497 0.04668922 0.13531052
-0.063681111 0.041638292 0.13322771
0.097979091 0.041526113 0.13465101
0.10502738 0.04596756 0.13580152
0.14903696 0.048324689 0.13451461
0.15032609 0.043706879 0.13463254
0.10901193 0.050234184 0.13322771
0.11744723 0.058546998 0.13322771
0.13989784 0.05965995 0.13580152
0.14577065 0.054260265 0.13451461
0.12960254 0.062280439 0.13580152
0.13475017 0.061642148 0.13580152
-0.095409259 -0.035797119 0.14480992
-0.085684665 -0.033195924 0.1444772
-0.075129651 -0.031692673 0.14448915
-0.064515539 -0.032395765 0.14260535
-0.055727534 -0.030438444 0.14255777
-0.044850774 -0.030716661 0.14793633
-0.03512229 -0.030815355 0.14739889
-0.027648363 -0.03022138 0.1472061
-0.015584789 -0.032101691 0.14484352
-0.0057881302 -0.03333405 0.14558309
0.0047720037 -0.033699125 0.14480993
0.015067305 -0.033957966 0.14480993
0.025793634 -0.033575907 0.14524122
0.035379965 -0.03262936 0.14449315
0.045953207 -0.031641968 0.14480993
0.054961603 -0.031338036 0.14480992
0.06253811 -0.030427733 0.14411338
-0.099266924 -0.02631624 0.14480993
-0.073729672 -0.029536715 0.14867064
-0.064721286 -0.028773261 0.14738373
-0.054078195 -0.027717594 0.1451835
-0.044695236 -0.027245618 0.14348711
-0.03512229 -0.028930575 0.14352301
-0.026542872 -0.029202938 0.14523889
-0.019679338 -0.029137596 0.14867064
0.066222087 -0.029345563 0.14577511
0.07446488 -0.027442059 0.14494735
0.085489221 -0.024290785 0.14349876
0.095193453 -0.021700548 0.14295782
0.10504666 -0.024070688 0.14522304
0.1153919 -0.026955009 0.14449067
0.12615705 -0.024843961 0.14523855
0.13273865 -0.021637546 0.14261734
0.14761932 -0.020423703 0.14480992
0.15019314 -0.020609032 0.14480992
-0.099565126 -0.017307855 0.14609683
0.094226472 -0.019732943 0.14764379
0.13636738 -0.018357182 0.14592934
0.14422788 -0.018505534 0.14532615
0.15357403 -0.01659565 0.14480992
-0.10014806 -0.0044387281 0.14609683
-0.099835917 -0.0095863789 0.14609683
0.15448135 -0.0057256408 0.14480992
-0.10052274 0.0032827482 0.14609683
0.15332775 0.0048510851 0.14503703
-0.10094802 0.01357805 0.14609683
0.15263593 0.014265564 0.14466524
-0.10170831 0.023873352 0.14609683
0.15213576 0.025160264 0.14480993
-0.10071033 0.031594828 0.14609683
-0.097748064 0.037251219 0.14523889
-0.050565243 0.038376436 0.14352301
-0.043817293 0.03642486 0.14586675
-0.03512229 0.034542792 0.14609683
-0.027400814 0.034251012 0.14609683
-0.017105512 0.03440962 0.14609683
-0.0055232979 0.034310903 0.14417203
0.0047720037 0.03425638 0.14419918
0.015268279 0.034222044 0.14451952
0.025362607 0.034473121 0.1448099
0.035657909 0.035007346 0.14480992
0.045953214 0.03553094 0.1448099
0.054961603 0.036083132 0.14480993
0.064597324 0.036658682 0.14491077
0.074038193 0.03742741 0.14508915
0.084817968 0.038292915 0.1466116
0.093568981 0.039786287 0.14609683
0.15148729 0.035455562 0.1448099
-0.085189715 0.046544537 0.14352301
-0.076303497 0.048049286 0.14352301
-0.067205489 0.046604868 0.14514259
-0.055712894 0.040711746 0.14352301
0.09907487 0.041728243 0.14609683
0.10595476 0.046601303 0.14558206
0.14886551 0.048324689 0.14480992
0.15031549 0.043464415 0.14480993
0.11777432 0.058349676 0.14352301
0.13989784 0.059615277 0.14609683
0.14574564 0.054216016 0.14480992
0.12960254 0.062149808 0.14609683
0.13475017 0.061550625 0.14609683
-0.096201792 -0.035949878 0.15497208
-0.085978717 -0.034550879 0.15548964
-0.075000592 -0.031124553 0.15356992
-0.064291164 -0.032881107 0.15554377
-0.054300021 -0.034761161 0.15533814
-0.043983076 -0.036862396 0.15702267
-0.034494512 -0.035380784 0.15809652
-0.028079886 -0.031692374 0.15725008
-0.011592165 -0.030176982 0.15104814
-0.0052810139 -0.031121602 0.15259546
0.0047413982 -0.031787921 0.15460847
0.015067306 -0.03253163 0.15473302
0.025242317 -0.032444913 0.15446606
0.035657909 -0.031554319 0.15510522
0.045441307 -0.030632857 0.15512814
0.054613147 -0.030256653 0.15221813
0.060109243 -0.030176982 0.15012744
-0.099358007 -0.02631624 0.15510522
-0.072442755 -0.029641666 0.15124449
-0.064721286 -0.029137548 0.15124449
-0.023315221 -0.028285876 0.15812172
-0.01700397 -0.025436297 0.15681532
-0.0080639962 -0.026015265 0.1577764
0.002198182 -0.029246025 0.15896595
0.047883578 -0.029687524 0.15832248
0.055747457 -0.028904306 0.15696409
0.06415455 -0.027643396 0.1549319
0.073942609 -0.025231296 0.15471205
0.086705446 -0.02150096 0.15553419
0.10709678 -0.022035442 0.15203799
0.11571147 -0.023084428 0.1533007
0.12350233 -0.022749215 0.15227617
0.14710455 -0.020456022 0.15587738
0.15019314 -0.020499457 0.15510522
-0.099505447 -0.017307855 0.15639213
0.096079312 -0.018102465 0.15568744
0.10420878 -0.018358247 0.15595153
0.1146462 -0.0193156 0.15763465
0.12623551 -0.017874736 0.15607683
0.13516974 -0.015694192 0.15535425
0.14368978 -0.018523633 0.1549072
0.15333186 -0.016534595 0.15510522
-0.10025007 -0.0044387281 0.15639213
-0.099892184 -0.0095863789 0.15639213
0.15404476 -0.0057256408 0.15510522
-0.10060489 0.0032827482 0.15639213
0.15302241 0.0056430395 0.15491317
-0.10103248 0.01357805 0.15639213
0.15223262 0.014864963 0.15510523
-0.10193136 0.023873352 0.15639213
0.15183733 0.025160264 0.15510523
-0.10110016 0.031594828 0.15639213
-0.098147839 0.037573971 0.15553419
-0.04288727 0.036809389 0.15639213
-0.03512229 0.034514442 0.15639213
-0.027400814 0.034056928 0.15639213
-0.017105512 0.034100134 0.15639213
-0.0047511519 0.034339592 0.15506984
0.0046468074 0.034048785 0.1545997
0.015067306 0.03378614 0.1545701
0.025122318 0.03410529 0.15467916
0.035397146 0.034373701 0.15563968
0.045480531 0.034619413 0.15576428
0.054961603 0.035168529 0.15510522
0.063969992 0.035696436 0.15510522
0.074701078 0.036546562 0.15467334
0.082915053 0.037218504 0.15589444
0.093568981 0.038740285 0.15639213
0.15117693 0.035455566 0.15510523
-0.086740978 0.04703778 0.15317613
-0.062471412 0.04703778 0.15381831
-0.055712894 0.043438599 0.15381831
0.098716632 0.040803201 0.15639213
0.10436176 0.045235109 0.15602444
0.14888875 0.047895718 0.15553419
0.15027437 0.043229528 0.15475424
0.11765586 0.058404855 0.15381831
0.13989784 0.059440933 0.15639213
0.14561872 0.054095525 0.15510522
0.12960254 0.062122852 0.15639213
0.13475017 0.061446257 0.15639213
-0.091746449 -0.040106341 0.16926125
-0.061478339 -0.040361524 0.1692702
-0.05399701 -0.040518802 0.16866913
-0.044547409 -0.040488839 0.16812041
-0.096993342 -0.035689164 0.16557291
-0.085530549 -0.036328554 0.16534239
-0.073741451 -0.036236364 0.16650002
-0.064949006 -0.038010992 0.16501653
