# .PCD v.7 - Point Cloud Data file format
FIELDS x y z rgb imX imY
SIZE 4 4 4 4 4 4
TYPE F F F F F F
COUNT 1 1 1 1 1 1
WIDTH 834
HEIGHT 1
VIEWPOINT 0 0 0 1 0 0 0
POINTS 834
DATA ascii
0.01487528 0.70700002 -0.034708988 1.0144801e-38 332 268
0.01613768 0.708 -0.034758076 1.0144801e-38 333 268
0.017379038 0.708 -0.034758076 1.0605764e-38 334 268
0.0186204 0.708 -0.034758076 1.2449675e-38 335 268
0.01986176 0.708 -0.034758076 1.6962924e-38 336 268
-0.043570329 0.70999998 -0.036101133 1.7976718e-38 285 269
-0.042325463 0.70999998 -0.036101133 1.7976718e-38 286 269
-0.041080594 0.70999998 -0.036101133 1.5487438e-38 287 269
-0.039835732 0.70999998 -0.036101133 1.3831881e-38 288 269
-0.038482159 0.708 -0.03599944 1.2541142e-38 289 269
-0.0372408 0.708 -0.03599944 1.1896868e-38 290 269
-0.035948593 0.70700002 -0.035948593 1.1804673e-38 291 269
-0.034512613 0.70300001 -0.035745207 1.134406e-38 292 269
-0.03318534 0.70099998 -0.035643511 1.134406e-38 293 269
-0.031910665 0.69999999 -0.035592664 1.1345862e-38 294 269
-0.030595668 0.69800001 -0.035490975 1.1622808e-38 295 269
-0.029371841 0.69800001 -0.035490975 1.1623524e-38 296 269
-0.028148014 0.69800001 -0.035490975 1.1531329e-38 297 269
-0.026885614 0.69700003 -0.035440128 1.1255821e-38 298 269
-0.025663542 0.69700003 -0.035440128 1.1440212e-38 299 269
-0.0244064 0.69599998 -0.035389278 1.1256186e-38 300 269
-0.023186078 0.69599998 -0.035389278 9.4122738e-39 301 269
-0.021902639 0.69400001 -0.035287585 8.8540777e-39 302 269
-0.020685827 0.69400001 -0.035287585 8.3934597e-39 303 269
-0.01944096 0.69300002 -0.035236739 9.2192729e-39 304 269
-0.018225901 0.69300002 -0.035236739 9.2192729e-39 305 269
-0.01701084 0.69300002 -0.035236739 9.4022292e-39 306 269
-0.015795778 0.69300002 -0.035236739 9.4022292e-39 307 269
-0.01460176 0.69400001 -0.035287585 9.2199918e-39 308 269
-0.013384946 0.69400001 -0.035287585 9.2199918e-39 309 269
-0.012168133 0.69400001 -0.035287585 9.1306688e-39 310 269
-0.01095132 0.69400001 -0.035287585 9.4994499e-39 311 269
-0.0097345067 0.69400001 -0.035287585 9.408685e-39 312 269
-0.0085176928 0.69400001 -0.035287585 9.408685e-39 313 269
-0.0073008798 0.69400001 -0.035287585 9.316488e-39 314 269
-0.0060840664 0.69400001 -0.035287585 9.316488e-39 315 269
-0.0048812795 0.69599998 -0.035389278 1.0054773e-38 316 269
-0.0036609597 0.69599998 -0.035389278 1.0239165e-38 317 269
-0.0024441467 0.69700003 -0.035440128 1.0056921e-38 318 269
-0.0012220733 0.69700003 -0.035440128 9.8725302e-39 319 269
0 0.69700003 -0.035440128 8.6721906e-39 320 269
0.0012220733 0.69700003 -0.035440128 9.409757e-39 321 269
0.0024441467 0.69700003 -0.035440128 1.0330271e-38 322 269
0.00366622 0.69700003 -0.035440128 1.0883085e-38 323 269
0.0048882933 0.69700003 -0.035440128 1.0883438e-38 324 269
0.006119133 0.69800001 -0.035490975 1.0975635e-38 325 269
0.0073639993 0.69999999 -0.035592664 1.1251146e-38 326 269
0.0085913334 0.69999999 -0.035592664 1.0790526e-38 327 269
0.0098326923 0.70099998 -0.035643511 1.0512861e-38 328 269
0.011109119 0.704 -0.035796054 1.0420665e-38 329 269
0.012343466 0.704 -0.035796054 1.0236997e-38 330 269
0.013635674 0.70700002 -0.035948593 1.0236997e-38 331 269
0.01489632 0.708 -0.03599944 1.005368e-38 332 269
0.01613768 0.708 -0.03599944 1.0422464e-38 333 269
0.017379038 0.708 -0.03599944 1.1526994e-38 334 269
0.0186204 0.708 -0.03599944 1.327871e-38 335 269
0.01986176 0.708 -0.03599944 1.7146955e-38 336 269
-0.043570329 0.70999998 -0.037345998 1.7976718e-38 285 270
-0.042325463 0.70999998 -0.037345998 1.7794125e-38 286 270
-0.041080594 0.70999998 -0.037345998 1.5304845e-38 287 270
-0.039835732 0.70999998 -0.037345998 1.3372702e-38 288 270
-0.038590867 0.70999998 -0.037345998 1.2542941e-38 289 270
-0.0372408 0.708 -0.0372408 1.1803953e-38 290 270
-0.035948593 0.70700002 -0.037188202 1.1434811e-38 291 270
-0.034561705 0.704 -0.037030395 1.1526657e-38 292 270
-0.033280019 0.70300001 -0.036977798 1.1526657e-38 293 270
-0.031910665 0.69999999 -0.036819998 1.1529175e-38 294 270
-0.030595668 0.69800001 -0.0367148 1.1713925e-38 295 270
-0.029371841 0.69800001 -0.0367148 1.180612e-38 296 270
-0.028148014 0.69800001 -0.0367148 1.1898316e-38 297 270
-0.026885614 0.69700003 -0.036662199 1.1623524e-38 298 270
-0.025663542 0.69700003 -0.036662199 1.171572e-38 299 270
-0.024441468 0.69700003 -0.036662199 1.1347666e-38 300 270
-0.023186078 0.69599998 -0.036609598 9.3190033e-39 301 270
-0.021965759 0.69599998 -0.036609598 8.8558798e-39 302 270
-0.020685827 0.69400001 -0.036504399 8.302706e-39 303 270
-0.019469013 0.69400001 -0.036504399 9.0359579e-39 304 270
-0.0182522 0.69400001 -0.036504399 9.0359579e-39 305 270
-0.017035386 0.69400001 -0.036504399 9.2192701e-39 306 270
-0.015818574 0.69400001 -0.036504399 9.4036614e-39 307 270
-0.01460176 0.69400001 -0.036504399 8.9466335e-39 308 270
-0.013384946 0.69400001 -0.036504399 9.0388291e-39 309 270
-0.012168133 0.69400001 -0.036504399 9.2242924e-39 310 270
-0.01095132 0.69400001 -0.036504399 9.316488e-39 311 270
-0.0097625591 0.69599998 -0.036609598 9.5927162e-39 312 270
-0.0085422397 0.69599998 -0.036609598 9.8696618e-39 313 270
-0.0073219193 0.69599998 -0.036609598 9.7778291e-39 314 270
-0.0061015999 0.69599998 -0.036609598 9.5016023e-39 315 270
-0.0048882933 0.69700003 -0.036662199 9.9643727e-39 316 270
-0.00366622 0.69700003 -0.036662199 1.0149123e-38 317 270
-0.0024441467 0.69700003 -0.036662199 1.0332432e-38 318 270
-0.0012238267 0.69800001 -0.0367148 9.8718142e-39 319 270
0 0.69800001 -0.0367148 7.5683654e-39 320 270
0.0012238267 0.69800001 -0.0367148 8.8591028e-39 321 270
0.0024476533 0.69800001 -0.0367148 1.0697622e-38 322 270
0.0036714801 0.69800001 -0.0367148 1.0790176e-38 323 270
0.0048953067 0.69800001 -0.0367148 1.0606498e-38 324 270
0.0061366665 0.69999999 -0.036819998 1.0422467e-38 325 270
0.0073639993 0.69999999 -0.036819998 1.0605782e-38 326 270
0.0086036054 0.70099998 -0.036872596 1.0237e-38 327 270
0.0098607466 0.70300001 -0.036977798 1.0145523e-38 328 270
0.011109119 0.704 -0.037030395 1.0237718e-38 329 270
0.012378532 0.70599997 -0.037135597 1.0054759e-38 330 270
0.013635674 0.70700002 -0.037188202 1.0238792e-38 331 270
0.01489632 0.708 -0.0372408 1.0331341e-38 332 270
0.01613768 0.708 -0.0372408 1.0607927e-38 333 270
0.017379038 0.708 -0.0372408 1.1251482e-38 334 270
0.0186204 0.708 -0.0372408 1.318759e-38 335 270
0.01986176 0.708 -0.0372408 1.7607213e-38 336 270
-0.042385083 0.71100003 -0.038645219 1.7885602e-38 286 271
-0.041138459 0.71100003 -0.038645219 1.5580711e-38 287 271
-0.039891839 0.71100003 -0.038645219 1.3831165e-38 288 271
-0.038590867 0.70999998 -0.038590867 1.3277991e-38 289 271
-0.037345998 0.70999998 -0.038590867 1.1804676e-38 290 271
-0.03599944 0.708 -0.038482159 1.106675e-38 291 271
-0.034659892 0.70599997 -0.038373452 1.1158597e-38 292 271
-0.033280019 0.70300001 -0.038210396 1.1251151e-38 293 271
-0.031956252 0.70099998 -0.038101684 1.1342991e-38 294 271
-0.030683333 0.69999999 -0.038047329 1.1527741e-38 295 271
-0.029371841 0.69800001 -0.037938625 1.1713569e-38 296 271
-0.028148014 0.69800001 -0.037938625 1.1805764e-38 297 271
-0.026924185 0.69800001 -0.037938625 1.1163988e-38 298 271
-0.025663542 0.69700003 -0.037884273 1.1440575e-38 299 271
-0.024441468 0.69700003 -0.037884273 1.1530978e-38 300 271
-0.023219392 0.69700003 -0.037884273 9.6870656e-39 301 271
-0.021965759 0.69599998 -0.037829921 8.9484285e-39 302 271
-0.020745439 0.69599998 -0.037829921 8.3030591e-39 303 271
-0.019525118 0.69599998 -0.037829921 9.2203393e-39 304 271
-0.0182522 0.69400001 -0.037721213 9.3125349e-39 305 271
-0.017035386 0.69400001 -0.037721213 9.1299401e-39 306 271
-0.015818574 0.69400001 -0.037721213 9.4068858e-39 307 271
-0.014643839 0.69599998 -0.037829921 8.9484257e-39 308 271
-0.013423519 0.69599998 -0.037829921 8.9484257e-39 309 271
-0.0122032 0.69599998 -0.037829921 9.1324597e-39 310 271
-0.010982879 0.69599998 -0.037829921 9.3172111e-39 311 271
-0.0097625591 0.69599998 -0.037829921 9.0442269e-39 312 271
-0.0085422397 0.69599998 -0.037829921 9.6895963e-39 313 271
-0.00733244 0.69700003 -0.037884273 1.0609748e-38 314 271
-0.0061103669 0.69700003 -0.037884273 1.0517193e-38 315 271
-0.0048882933 0.69700003 -0.037884273 1.0517547e-38 316 271
-0.00366622 0.69700003 -0.037884273 1.0425351e-38 317 271
-0.0024441467 0.69700003 -0.037884273 1.0700859e-38 318 271
-0.0012238267 0.69800001 -0.037938625 1.0055489e-38 319 271
0 0.69800001 -0.037938625 7.8428013e-39 320 271
0.0012238267 0.69800001 -0.037938625 8.7647562e-39 321 271
0.0024476533 0.69800001 -0.037938625 9.867508e-39 322 271
0.0036714801 0.69800001 -0.037938625 1.0052258e-38 323 271
0.0048953067 0.69800001 -0.037938625 9.867508e-39 324 271
0.0061366665 0.69999999 -0.038047329 9.5912798e-39 325 271
0.0073745195 0.70099998 -0.038101684 9.4994499e-39 326 271
0.0086281532 0.70300001 -0.038210396 9.6838426e-39 327 271
0.0098747732 0.704 -0.038264744 9.8696618e-39 328 271
0.011109119 0.704 -0.038264744 1.0054053e-38 329 271
0.012396066 0.70700002 -0.038427804 1.0238792e-38 330 271
0.013654959 0.708 -0.038482159 1.0330987e-38 331 271
0.01489632 0.708 -0.038482159 1.0239868e-38 332 271
0.01613768 0.708 -0.038482159 1.0516454e-38 333 271
0.017379038 0.708 -0.038482159 1.1342602e-38 334 271
0.0186204 0.708 -0.038482159 1.3555298e-38 335 271
-0.041138459 0.71100003 -0.039891839 1.5948771e-38 287 272
-0.039891839 0.71100003 -0.039891839 1.4566926e-38 288 272
-0.038590867 0.70999998 -0.039835732 1.3737164e-38 289 272
-0.037345998 0.70999998 -0.039835732 1.2172376e-38 290 272
-0.03599944 0.708 -0.039723519 1.1434811e-38 291 272
-0.034708988 0.70700002 -0.039667413 1.1158953e-38 292 272
-0.03332736 0.704 -0.039499093 1.1066756e-38 293 272
-0.032047424 0.70300001 -0.039442986 1.1341192e-38 294 272
-0.030727165 0.70099998 -0.039330769 1.097277e-38 295 272
-0.029455997 0.69999999 -0.039274666 1.0148044e-38 296 272
-0.028228667 0.69999999 -0.039274666 1.0516828e-38 297 272
-0.026924185 0.69800001 -0.039162453 1.1069997e-38 298 272
-0.025700359 0.69800001 -0.039162453 1.1530975e-38 299 272
-0.024476532 0.69800001 -0.039162453 1.1898682e-38 300 272
-0.023219392 0.69700003 -0.039106347 1.0147325e-38 301 272
-0.02199732 0.69700003 -0.039106347 9.7767473e-39 302 272
-0.020775247 0.69700003 -0.039106347 9.0388235e-39 303 272
-0.019553173 0.69700003 -0.039106347 9.1299429e-39 304 272
-0.018304799 0.69599998 -0.039050236 9.2221386e-39 305 272
-0.017084479 0.69599998 -0.039050236 9.1317436e-39 306 272
-0.015864158 0.69599998 -0.039050236 9.2239392e-39 307 272
-0.01466488 0.69700003 -0.039106347 8.9480754e-39 308 272
-0.013423519 0.69599998 -0.039050236 8.8558798e-39 309 272
-0.0122032 0.69599998 -0.039050236 9.0391949e-39 310 272
-0.01099866 0.69700003 -0.039106347 9.0391949e-39 311 272
-0.0097765867 0.69700003 -0.039106347 8.9513152e-39 312 272
-0.0085545136 0.69700003 -0.039106347 9.3204579e-39 313 272
-0.00733244 0.69700003 -0.039106347 9.5059183e-39 314 272
-0.006119133 0.69800001 -0.039162453 9.5059183e-39 315 272
-0.0048953067 0.69800001 -0.039162453 1.0054771e-38 316 272
-0.0036714801 0.69800001 -0.039162453 9.9625735e-39 317 272
-0.0024476533 0.69800001 -0.039162453 9.9600567e-39 318 272
-0.0012238267 0.69800001 -0.039162453 9.4994373e-39 319 272
0 0.69800001 -0.039162453 8.3941758e-39 320 272
0.0012238267 0.69800001 -0.039162453 9.0395452e-39 321 272
0.0024476533 0.69800001 -0.039162453 9.315409e-39 322 272
0.0036714801 0.69800001 -0.039162453 9.4998003e-39 323 272
0.0048953067 0.69800001 -0.039162453 9.408685e-39 324 272
0.0061454331 0.70099998 -0.039330769 9.316488e-39 325 272
0.0073955595 0.70300001 -0.039442986 9.4990842e-39 326 272
0.0086281532 0.70300001 -0.039442986 9.867508e-39 327 272
0.0098747732 0.704 -0.039499093 9.9600567e-39 328 272
0.011140679 0.70599997 -0.039611302 1.0144807e-38 329 272
0.012396066 0.70700002 -0.039667413 1.0236997e-38 330 272
0.013654959 0.708 -0.039723519 1.0236997e-38 331 272
0.01489632 0.708 -0.039723519 1.0238069e-38 332 272
0.01613768 0.708 -0.039723519 1.0053677e-38 333 272
0.017379038 0.708 -0.039723519 1.198617e-38 334 272
0.0186204 0.708 -0.039723519 1.4659844e-38 335 272
-0.041312039 0.71399999 -0.041312039 1.594985e-38 287 273
-0.040060159 0.71399999 -0.041312039 1.4936784e-38 288 273
-0.038645219 0.71100003 -0.041138459 1.3646045e-38 289 273
-0.037345998 0.70999998 -0.041080594 1.1803953e-38 290 273
-0.03599944 0.708 -0.040964879 1.1066387e-38 291 273
-0.034708988 0.70700002 -0.040907022 1.1157877e-38 292 273
-0.033422034 0.70599997 -0.040849157 1.1065681e-38 293 273
-0.032093015 0.704 -0.040733438 1.1065328e-38 294 273
-0.030814834 0.70300001 -0.040675577 1.0880937e-38 295 273
-0.029498078 0.70099998 -0.040559858 1.0236649e-38 296 273
-0.028268991 0.70099998 -0.040559858 1.0789823e-38 297 273
-0.027001332 0.69999999 -0.040502001 1.0610814e-38 298 273
-0.025700359 0.69800001 -0.040386278 1.1163988e-38 299 273
-0.024476532 0.69800001 -0.040386278 1.1807917e-38 300 273
-0.023252707 0.69800001 -0.040386278 1.0517178e-38 301 273
-0.02202888 0.69800001 -0.040386278 9.7774661e-39 302 273
-0.020805053 0.69800001 -0.040386278 8.578923e-39 303 273
-0.019553173 0.69700003 -0.040328421 9.3125377e-39 304 273
-0.018331099 0.69700003 -0.040328421 9.4969304e-39 305 273
-0.017109027 0.69700003 -0.040328421 9.223942e-39 306 273
-0.015886955 0.69700003 -0.040328421 9.223942e-39 307 273
-0.01466488 0.69700003 -0.040328421 9.223942e-39 308 273
-0.013442807 0.69700003 -0.040328421 9.223942e-39 309 273
-0.012220734 0.69700003 -0.040328421 9.1313877e-39 310 273
-0.01099866 0.69700003 -0.040328421 9.4083347e-39 311 273
-0.0097765867 0.69700003 -0.040328421 8.8612706e-39 312 273
-0.0085667865 0.69800001 -0.040386278 9.1378589e-39 313 273
-0.0073429602 0.69800001 -0.040386278 9.5051925e-39 314 273
-0.006119133 0.69800001 -0.040386278 9.3211599e-39 315 273
-0.0048953067 0.69800001 -0.040386278 9.5945042e-39 316 273
-0.0036714801 0.69800001 -0.040386278 9.3175572e-39 317 273
-0.0024476533 0.69800001 -0.040386278 9.2217686e-39 318 273
-0.0012238267 0.69800001 -0.040386278 9.3143244e-39 319 273
0 0.69800001 -0.040386278 9.2224945e-39 320 273
0.0012238267 0.69800001 -0.040386278 9.4068858e-39 321 273
0.0024546667 0.69999999 -0.040502001 9.1320967e-39 322 273
0.0036819996 0.69999999 -0.040502001 9.316488e-39 323 273
0.0049163462 0.70099998 -0.040559858 9.2242924e-39 324 273
0.0061629666 0.70300001 -0.040675577 9.316488e-39 325 273
0.0074060797 0.704 -0.040733438 9.3164908e-39 326 273
0.0086404262 0.704 -0.040733438 9.2239364e-39 327 273
0.0099028256 0.70599997 -0.040849157 9.4072515e-39 328 273
0.011140679 0.70599997 -0.040849157 9.5920029e-39 329 273
0.0124136 0.708 -0.040964879 9.867508e-39 330 273
0.013693533 0.70999998 -0.041080594 9.7753124e-39 331 273
0.014938398 0.70999998 -0.041080594 9.4994345e-39 332 273
0.016183265 0.70999998 -0.041080594 9.2224889e-39 333 273
0.017428132 0.70999998 -0.041080594 1.2723017e-38 334 273
0.018672999 0.70999998 -0.041080594 1.5212299e-38 335 273
-0.040060159 0.71399999 -0.042563915 1.5121179e-38 288 274
-0.038645219 0.71100003 -0.042385083 1.3738245e-38 289 274
-0.037345998 0.70999998 -0.042325463 1.1067106e-38 290 274
-0.03599944 0.708 -0.042206239 9.5923364e-39 291 274
-0.034708988 0.70700002 -0.042146627 1.106352e-38 292 274
-0.033469379 0.70700002 -0.042146627 1.1431943e-38 293 274
-0.032093015 0.704 -0.041967787 1.1065318e-38 294 274
-0.030858666 0.704 -0.041967787 1.1065318e-38 295 274
-0.029582238 0.70300001 -0.041908171 1.0790171e-38 296 274
-0.028349647 0.70300001 -0.041908171 1.1251149e-38 297 274
-0.027039904 0.70099998 -0.041788943 1.1070353e-38 298 274
-0.025773998 0.69999999 -0.041729331 1.1531331e-38 299 274
-0.024546666 0.69999999 -0.041729331 1.1624246e-38 300 274
-0.023319334 0.69999999 -0.041729331 1.0978876e-38 301 274
-0.02202888 0.69800001 -0.041610107 9.778185e-39 302 274
-0.020805053 0.69800001 -0.041610107 8.7640345e-39 303 274
-0.019581227 0.69800001 -0.041610107 9.4976493e-39 304 274
-0.0183574 0.69800001 -0.041610107 9.5898449e-39 305 274
-0.017109027 0.69700003 -0.041550495 9.0409899e-39 306 274
-0.015886955 0.69700003 -0.041550495 9.1335457e-39 307 274
-0.01468592 0.69800001 -0.041610107 8.9495132e-39 308 274
-0.013462093 0.69800001 -0.041610107 8.765482e-39 309 274
-0.012238266 0.69800001 -0.041610107 9.3168551e-39 310 274
-0.01101444 0.69800001 -0.041610107 9.5012464e-39 311 274
-0.0097906133 0.69800001 -0.041610107 9.4137199e-39 312 274
-0.0085667865 0.69800001 -0.041610107 9.5059155e-39 313 274
-0.0073429602 0.69800001 -0.041610107 9.6895837e-39 314 274
-0.006119133 0.69800001 -0.041610107 9.6895837e-39 315 274
-0.0048953067 0.69800001 -0.041610107 9.8714582e-39 316 274
-0.0036714801 0.69800001 -0.041610107 9.5026743e-39 317 274
-0.0024476533 0.69800001 -0.041610107 9.5923518e-39 318 274
-0.0012238267 0.69800001 -0.041610107 9.1313751e-39 319 274
0 0.69999999 -0.041729331 9.1320939e-39 320 274
0.0012273333 0.69999999 -0.041729331 9.2242896e-39 321 274
0.0024546667 0.69999999 -0.041729331 9.315409e-39 322 274
0.0036872597 0.70099998 -0.041788943 9.4076046e-39 323 274
0.0049303733 0.70300001 -0.041908171 9.3164908e-39 324 274
0.0061717331 0.704 -0.041967787 9.3164908e-39 325 274
0.0074060797 0.704 -0.041967787 9.4990842e-39 326 274
0.0086649731 0.70599997 -0.042087011 9.4068886e-39 327 274
0.0099028256 0.70599997 -0.042087011 9.4998003e-39 328 274
0.011140679 0.70599997 -0.042087011 9.4998003e-39 329 274
0.012448666 0.70999998 -0.042325463 9.8660618e-39 330 274
0.013693533 0.70999998 -0.042325463 9.8660618e-39 331 274
0.014938398 0.70999998 -0.042325463 9.7727816e-39 332 274
0.016183265 0.70999998 -0.042325463 9.7727816e-39 333 274
0.017428132 0.70999998 -0.042325463 1.3735373e-38 334 274
-0.040172372 0.71600002 -0.043938532 1.5489241e-38 288 275
-0.038808275 0.71399999 -0.043815799 1.4198503e-38 289 275
-0.037398599 0.71100003 -0.043631699 1.1711038e-38 290 275
-0.036101133 0.70999998 -0.043570329 1.0051157e-38 291 275
-0.034758076 0.708 -0.043447599 1.0787299e-38 292 275
-0.033516716 0.708 -0.043447599 1.1063886e-38 293 275
-0.032229774 0.70700002 -0.043386232 1.097277e-38 294 275
-0.030858666 0.704 -0.043202132 1.097277e-38 295 275
-0.029624319 0.704 -0.043202132 1.0790892e-38 296 275
-0.028349647 0.70300001 -0.043140765 1.125187e-38 297 275
-0.027039904 0.70099998 -0.043018032 1.116255e-38 298 275
-0.025810819 0.70099998 -0.043018032 1.1531331e-38 299 275
-0.024581732 0.70099998 -0.043018032 1.2174544e-38 300 275
-0.023319334 0.69999999 -0.042956665 1.1621729e-38 301 275
-0.022091998 0.69999999 -0.042956665 1.0513228e-38 302 275
-0.020864666 0.69999999 -0.042956665 9.8678583e-39 303 275
-0.019581227 0.69800001 -0.042833932 9.7753095e-39 304 275
-0.0183574 0.69800001 -0.042833932 9.591277e-39 305 275
-0.017133573 0.69800001 -0.042833932 9.1335457e-39 306 275
-0.015909746 0.69800001 -0.042833932 9.1335457e-39 307 275
-0.01468592 0.69800001 -0.042833932 9.2257413e-39 308 275
-0.013462093 0.69800001 -0.042833932 9.1335457e-39 309 275
-0.012238266 0.69800001 -0.042833932 9.592719e-39 310 275
-0.01101444 0.69800001 -0.042833932 9.8693058e-39 311 275
-0.0097906133 0.69800001 -0.042833932 9.5051925e-39 312 275
-0.0085667865 0.69800001 -0.042833932 9.873975e-39 313 275
-0.0073429602 0.69800001 -0.042833932 9.9654475e-39 314 275
-0.0061366665 0.69999999 -0.042956665 9.9654475e-39 315 275
-0.0049093333 0.69999999 -0.042956665 1.0055845e-38 316 275
-0.0036819996 0.69999999 -0.042956665 9.5948671e-39 317 275
-0.0024546667 0.69999999 -0.042956665 9.409034e-39 318 275
-0.0012273333 0.69999999 -0.042956665 9.3168383e-39 319 275
0 0.69999999 -0.042956665 9.13281e-39 320 275
0.0012273333 0.69999999 -0.042956665 9.13281e-39 321 275
0.0024651866 0.70300001 -0.043140765 9.315409e-39 322 275
0.0037030398 0.704 -0.043202132 9.4076046e-39 323 275
0.0049373866 0.704 -0.043202132 9.4076074e-39 324 275
0.0061717331 0.704 -0.043202132 9.3150531e-39 325 275
0.0074271196 0.70599997 -0.043324865 9.589482e-39 326 275
0.0086649731 0.70599997 -0.043324865 9.6816776e-39 327 275
0.0099028256 0.70599997 -0.043324865 9.315409e-39 328 275
0.011156459 0.70700002 -0.043386232 9.1313779e-39 329 275
0.012448666 0.70999998 -0.043570329 9.0388263e-39 330 275
0.01371282 0.71100003 -0.043631699 9.1310219e-39 331 275
0.014959441 0.71100003 -0.043631699 9.1299289e-39 332 275
0.01620606 0.71100003 -0.043631699 9.7752983e-39 333 275
0.01745268 0.71100003 -0.043631699 1.4382181e-38 334 275
-0.040396802 0.72000003 -0.045446403 1.5949498e-38 288 276
-0.038808275 0.71399999 -0.045067675 1.4566562e-38 289 276
-0.037556399 0.71399999 -0.045067675 1.2447521e-38 290 276
-0.036151983 0.71100003 -0.044878319 1.0603609e-38 291 276
-0.034856264 0.70999998 -0.044815198 1.1063164e-38 292 276
-0.033611398 0.70999998 -0.044815198 1.115536e-38 293 276
-0.032229774 0.70700002 -0.044625837 1.0971691e-38 294 276
-0.030946331 0.70599997 -0.044562716 1.0971691e-38 295 276
-0.029624319 0.704 -0.044436477 1.0697622e-38 296 276
-0.028389972 0.704 -0.044436477 1.11586e-38 297 276
-0.027117053 0.70300001 -0.04437336 1.1712125e-38 298 276
-0.025810819 0.70099998 -0.044247117 1.2080909e-38 299 276
-0.024581732 0.70099998 -0.044247117 1.2174544e-38 300 276
-0.023319334 0.69999999 -0.044183996 1.1621729e-38 301 276
-0.022091998 0.69999999 -0.044183996 1.0973488e-38 302 276
-0.020864666 0.69999999 -0.044183996 1.0328119e-38 303 276
-0.019637333 0.69999999 -0.044183996 9.7771102e-39 304 276
-0.0183574 0.69800001 -0.04405776 9.592719e-39 305 276
-0.017133573 0.69800001 -0.04405776 9.1342617e-39 306 276
-0.015909746 0.69800001 -0.04405776 9.2264574e-39 307 276
-0.014727999 0.69999999 -0.044183996 9.2257385e-39 308 276
-0.013500666 0.69999999 -0.044183996 9.2257385e-39 309 276
-0.012273333 0.69999999 -0.044183996 9.7771102e-39 310 276
-0.011045999 0.69999999 -0.044183996 9.8693058e-39 311 276
-0.0098186666 0.69999999 -0.044183996 9.5041163e-39 312 276
-0.0085913334 0.69999999 -0.044183996 9.8728988e-39 313 276
-0.0073639993 0.69999999 -0.044183996 9.8721799e-39 314 276
-0.0061366665 0.69999999 -0.044183996 9.7799843e-39 315 276
-0.0049093333 0.69999999 -0.044183996 9.6870684e-39 316 276
-0.0036819996 0.69999999 -0.044183996 9.5023184e-39 317 276
-0.0024546667 0.69999999 -0.044183996 9.5927162e-39 318 276
-0.0012290865 0.70099998 -0.044247117 9.316488e-39 319 276
0 0.70300001 -0.04437336 9.2250112e-39 320 276
0.0012325933 0.70300001 -0.04437336 9.1328156e-39 321 276
0.0024686933 0.704 -0.044436477 9.4068886e-39 322 276
0.0037030398 0.704 -0.044436477 9.4068886e-39 323 276
0.0049373866 0.704 -0.044436477 9.4068886e-39 324 276
0.0061892662 0.70599997 -0.044562716 9.3143342e-39 325 276
0.0074271196 0.70599997 -0.044562716 9.4972863e-39 326 276
0.0086649731 0.70599997 -0.044562716 9.4972863e-39 327 276
0.0099168532 0.70700002 -0.044625837 9.2221386e-39 328 276
0.011203799 0.70999998 -0.044815198 9.2221386e-39 329 276
0.0124662 0.71100003 -0.044878319 9.3136153e-39 330 276
0.01371282 0.71100003 -0.044878319 9.2214197e-39 331 276
0.014959441 0.71100003 -0.044878319 9.4976339e-39 332 276
0.01620606 0.71100003 -0.044878319 1.0880568e-38 333 276
0.01745268 0.71100003 -0.044878319 1.4750967e-38 334 276
0.0186993 0.71100003 -0.044878319 1.594951e-38 335 276
-0.040396802 0.72000003 -0.0467088 1.6225727e-38 288 277
-0.039134402 0.72000003 -0.0467088 1.4842793e-38 289 277
-0.037661601 0.71600002 -0.046449307 1.2999972e-38 290 277
-0.036304519 0.71399999 -0.046319555 1.115642e-38 291 277
-0.034905359 0.71100003 -0.046124939 1.1064239e-38 292 277
-0.033611398 0.70999998 -0.046060063 1.1064239e-38 293 277
-0.032366529 0.70999998 -0.046060063 1.0695823e-38 294 277
-0.031034 0.708 -0.045930319 1.0603627e-38 295 277
-0.029708479 0.70599997 -0.04580057 1.0512877e-38 296 277
-0.028389972 0.704 -0.045670826 1.0236649e-38 297 277
-0.027117053 0.70300001 -0.04560595 1.0420678e-38 298 277
-0.025884461 0.70300001 -0.04560595 1.0605429e-38 299 277
-0.024651866 0.70300001 -0.04560595 1.060759e-38 300 277
-0.023352645 0.70099998 -0.045476202 1.0423198e-38 301 277
-0.022123558 0.70099998 -0.045476202 1.0512877e-38 302 277
-0.020894472 0.70099998 -0.045476202 1.0236649e-38 303 277
-0.019637333 0.69999999 -0.04541133 9.593798e-39 304 277
-0.018409999 0.69999999 -0.04541133 9.5016023e-39 305 277
-0.017182667 0.69999999 -0.04541133 8.9509495e-39 306 277
-0.015955333 0.69999999 -0.04541133 9.0431451e-39 307 277
-0.014727999 0.69999999 -0.04541133 9.3168579e-39 308 277
-0.013500666 0.69999999 -0.04541133 9.3168579e-39 309 277
-0.012273333 0.69999999 -0.04541133 9.6849174e-39 310 277
-0.011045999 0.69999999 -0.04541133 9.777113e-39 311 277
-0.0098186666 0.69999999 -0.04541133 9.4112046e-39 312 277
-0.0085913334 0.69999999 -0.04541133 9.5034002e-39 313 277
-0.0073639993 0.69999999 -0.04541133 9.7778319e-39 314 277
-0.0061366665 0.69999999 -0.04541133 9.7778319e-39 315 277
-0.0049093333 0.69999999 -0.04541133 9.7771102e-39 316 277
-0.0036819996 0.69999999 -0.04541133 9.592719e-39 317 277
-0.0024546667 0.69999999 -0.04541133 9.5919973e-39 318 277
-0.0012325933 0.70300001 -0.04560595 9.4076046e-39 319 277
0 0.70300001 -0.04560595 9.4076074e-39 320 277
0.0012343467 0.704 -0.045670826 9.3150531e-39 321 277
0.0024686933 0.704 -0.045670826 9.314337e-39 322 277
0.0037135598 0.70599997 -0.04580057 9.314337e-39 323 277
0.0049514128 0.70599997 -0.04580057 9.314337e-39 324 277
0.0061892662 0.70599997 -0.04580057 9.2221414e-39 325 277
0.0074376399 0.70700002 -0.045865446 9.2214197e-39 326 277
0.008677247 0.70700002 -0.045865446 9.2214197e-39 327 277
0.0099308798 0.708 -0.045930319 9.1292227e-39 328 277
0.011203799 0.70999998 -0.046060063 9.2214197e-39 329 277
0.0124662 0.71100003 -0.046124939 9.315409e-39 330 277
0.01371282 0.71100003 -0.046124939 9.5919973e-39 331 277
0.015001519 0.713 -0.046254687 1.0606132e-38 332 277
0.016342819 0.71700001 -0.046514176 1.1343697e-38 333 277
0.017599959 0.71700001 -0.046514176 1.4475815e-38 334 277
0.018909698 0.71899998 -0.046643924 1.5674e-38 335 277
-0.041774917 0.722 -0.048104454 1.6870731e-38 287 278
-0.040396802 0.72000003 -0.0479712 1.6134608e-38 288 278
-0.039134402 0.72000003 -0.0479712 1.4751674e-38 289 278
-0.037819397 0.71899998 -0.04790457 1.3368754e-38 290 278
-0.036304519 0.71399999 -0.047571439 1.1524842e-38 291 278
-0.035003547 0.713 -0.047504812 1.124683e-38 292 278
-0.033611398 0.70999998 -0.047304932 1.124683e-38 293 278
-0.032366529 0.70999998 -0.047304932 1.051251e-38 294 278
-0.031034 0.708 -0.047171678 1.0420315e-38 295 278
-0.029708479 0.70599997 -0.047038425 1.0419608e-38 296 278
-0.028389972 0.704 -0.046905171 9.9589904e-39 297 278
-0.027155625 0.704 -0.046905171 9.7749648e-39 298 278
-0.025884461 0.70300001 -0.046838548 9.7749648e-39 299 278
-0.024651866 0.70300001 -0.046838548 9.4094221e-39 300 278
-0.023419274 0.70300001 -0.046838548 9.225391e-39 301 278
-0.02218668 0.70300001 -0.046838548 9.776041e-39 302 278
-0.020954086 0.70300001 -0.046838548 9.9600722e-39 303 278
-0.019665385 0.70099998 -0.046705291 9.6845615e-39 304 278
-0.018409999 0.69999999 -0.046638668 9.5923658e-39 305 278
-0.017182667 0.69999999 -0.046638668 9.1331898e-39 306 278
-0.015955333 0.69999999 -0.046638668 9.1331898e-39 307 278
-0.014749039 0.70099998 -0.046705291 9.224305e-39 308 278
-0.013519952 0.70099998 -0.046705291 9.224305e-39 309 278
-0.012290866 0.70099998 -0.046705291 9.4090536e-39 310 278
-0.011061779 0.70099998 -0.046705291 9.4090536e-39 311 278
-0.0098186666 0.69999999 -0.046638668 9.3168579e-39 312 278
-0.0085913334 0.69999999 -0.046638668 9.3168579e-39 313 278
-0.0073745195 0.70099998 -0.046705291 9.4083347e-39 314 278
-0.0061454331 0.70099998 -0.046705291 9.3161377e-39 315 278
-0.0049163462 0.70099998 -0.046705291 9.3161349e-39 316 278
-0.0036872597 0.70099998 -0.046705291 9.3161349e-39 317 278
-0.0024581731 0.70099998 -0.046705291 9.2242924e-39 318 278
-0.0012325933 0.70300001 -0.046838548 9.1320967e-39 319 278
0 0.704 -0.046905171 9.1310247e-39 320 278
0.0012343467 0.704 -0.046905171 9.0388291e-39 321 278
0.0024757064 0.70599997 -0.047038425 9.2217854e-39 322 278
0.0037135598 0.70599997 -0.047038425 9.2217854e-39 323 278
0.0049514128 0.70599997 -0.047038425 9.2221386e-39 324 278
0.0061980332 0.70700002 -0.047105055 9.1299429e-39 325 278
0.0074376399 0.70700002 -0.047105055 9.2214197e-39 326 278
0.008677247 0.70700002 -0.047105055 9.1292227e-39 327 278
0.0099308798 0.708 -0.047171678 8.8544308e-39 328 278
0.011203799 0.70999998 -0.047304932 9.1313779e-39 329 278
0.0124662 0.71100003 -0.047371563 9.6848992e-39 330 278
0.013751393 0.713 -0.047504812 1.0238072e-38 331 278
0.015022559 0.71399999 -0.047571439 1.0883788e-38 332 278
0.016342819 0.71700001 -0.04777132 1.1252571e-38 333 278
0.017649053 0.71899998 -0.04790457 1.4199587e-38 334 278
0.018909698 0.71899998 -0.04790457 1.5214099e-38 335 278
-0.041774917 0.722 -0.04937036 1.6686336e-38 287 279
-0.040509012 0.722 -0.04937036 1.595058e-38 288 279
-0.039134402 0.72000003 -0.0492336 1.4844591e-38 289 279
-0.037819397 0.71899998 -0.049165215 1.3553146e-38 290 279
-0.036406212 0.71600002 -0.048960082 1.1801789e-38 291 279
-0.035052639 0.71399999 -0.048823316 1.0785852e-38 292 279
-0.033753417 0.713 -0.048754938 1.1154633e-38 293 279
-0.032412119 0.71100003 -0.048618179 1.0787302e-38 294 279
-0.031121666 0.70999998 -0.048549797 1.0602911e-38 295 279
-0.029750559 0.70700002 -0.048344657 1.0235217e-38 296 279
-0.028470624 0.70599997 -0.048276275 9.866436e-39 297 279
-0.027155625 0.704 -0.048139516 9.8671577e-39 298 279
-0.02592128 0.704 -0.048139516 9.8671577e-39 299 279
-0.024686933 0.704 -0.048139516 9.4083375e-39 300 279
-0.023419274 0.70300001 -0.048071139 9.3157817e-39 301 279
-0.02218668 0.70300001 -0.048071139 9.7749592e-39 302 279
-0.020954086 0.70300001 -0.048071139 9.8671549e-39 303 279
-0.019721493 0.70300001 -0.048071139 9.7749592e-39 304 279
-0.018436298 0.70099998 -0.047934376 9.4987311e-39 305 279
-0.017207211 0.70099998 -0.047934376 9.4072543e-39 306 279
-0.015978126 0.70099998 -0.047934376 9.4994499e-39 307 279
-0.014791119 0.70300001 -0.048071139 9.3157817e-39 308 279
-0.013519952 0.70099998 -0.047934376 9.1313905e-39 309 279
-0.012290866 0.70099998 -0.047934376 9.2235861e-39 310 279
-0.011061779 0.70099998 -0.047934376 9.2235861e-39 311 279
-0.0098326923 0.70099998 -0.047934376 9.223942e-39 312 279
-0.0086036054 0.70099998 -0.047934376 9.3161377e-39 313 279
-0.0073745195 0.70099998 -0.047934376 9.1317436e-39 314 279
-0.0061454331 0.70099998 -0.047934376 9.2239392e-39 315 279
-0.0049163462 0.70099998 -0.047934376 9.5898449e-39 316 279
-0.0036872597 0.70099998 -0.047934376 9.5898449e-39 317 279
-0.0024651866 0.70300001 -0.048071139 9.4976493e-39 318 279
-0.0012343467 0.704 -0.048139516 9.3136181e-39 319 279
0 0.704 -0.048139516 9.0388291e-39 320 279
0.0012378532 0.70599997 -0.048276275 8.9466335e-39 321 279
0.0024792133 0.70700002 -0.048344657 9.3125377e-39 322 279
0.0037188199 0.70700002 -0.048344657 9.4047348e-39 323 279
0.0049584266 0.70700002 -0.048344657 9.3136153e-39 324 279
0.0062067998 0.708 -0.048413038 9.1292227e-39 325 279
0.0074481601 0.708 -0.048413038 8.9437594e-39 326 279
0.008689519 0.708 -0.048413038 8.9437594e-39 327 279
0.0099589331 0.70999998 -0.048549797 9.315409e-39 328 279
0.01121958 0.71100003 -0.048618179 1.0329562e-38 329 279
0.012501267 0.713 -0.048754938 1.0607927e-38 330 279
0.01377068 0.71399999 -0.048823316 1.0515732e-38 331 279
0.01506464 0.71600002 -0.048960082 1.0423533e-38 332 279
0.016342819 0.71700001 -0.04902846 1.0239142e-38 333 279
0.017599959 0.71700001 -0.04902846 1.3647497e-38 334 279
-0.041774917 0.722 -0.050636265 1.6318992e-38 287 280
-0.040509012 0.722 -0.050636265 1.6042412e-38 288 280
-0.039134402 0.72000003 -0.050496001 1.5120455e-38 289 280
-0.037819397 0.71899998 -0.050425861 1.3370555e-38 290 280
-0.036457058 0.71700001 -0.0502856 1.1987621e-38 291 280
-0.035150826 0.71600002 -0.050215468 1.0509991e-38 292 280
-0.033800758 0.71399999 -0.050075196 1.0694381e-38 293 280
-0.032412119 0.71100003 -0.049864799 1.0511081e-38 294 280
-0.031121666 0.70999998 -0.049794663 1.032705e-38 295 280
-0.02979264 0.708 -0.049654398 1.0235214e-38 296 280
-0.02855128 0.708 -0.049654398 9.9589875e-39 297 280
-0.027271347 0.70700002 -0.049584266 9.6841985e-39 298 280
-0.025994917 0.70599997 -0.04951413 9.6841985e-39 299 280
-0.024686933 0.704 -0.049373865 9.7753152e-39 300 280
-0.023452586 0.704 -0.049373865 9.7753152e-39 301 280
-0.02218668 0.70300001 -0.049303733 9.4090508e-39 302 280
-0.020954086 0.70300001 -0.049303733 9.4090508e-39 303 280
-0.019721493 0.70300001 -0.049303733 9.6820461e-39 304 280
-0.018488899 0.70300001 -0.049303733 9.5898505e-39 305 280
-0.017256306 0.70300001 -0.049303733 9.2235889e-39 306 280
-0.016023712 0.70300001 -0.049303733 9.3157845e-39 307 280
-0.014791119 0.70300001 -0.049303733 9.3157817e-39 308 280
-0.013558527 0.70300001 -0.049303733 9.2235861e-39 309 280
-0.012325933 0.70300001 -0.049303733 9.0391949e-39 310 280
-0.01109334 0.70300001 -0.049303733 9.1313905e-39 311 280
-0.0098607466 0.70300001 -0.049303733 9.1321065e-39 312 280
-0.0086281532 0.70300001 -0.049303733 9.1321065e-39 313 280
-0.0073955595 0.70300001 -0.049303733 9.4072543e-39 314 280
-0.0061629666 0.70300001 -0.049303733 9.1306688e-39 315 280
-0.0049303733 0.70300001 -0.049303733 9.3139839e-39 316 280
-0.0036977797 0.70300001 -0.049303733 9.2217882e-39 317 280
-0.0024686933 0.704 -0.049373865 9.4965773e-39 318 280
-0.0012343467 0.704 -0.049373865 9.4965773e-39 319 280
0 0.70599997 -0.04951413 9.0388291e-39 320 280
0.0012378532 0.70599997 -0.04951413 8.9466335e-39 321 280
0.0024792133 0.70700002 -0.049584266 9.0377459e-39 322 280
0.0037188199 0.70700002 -0.049584266 9.1299429e-39 323 280
0.0049584266 0.70700002 -0.049584266 9.4972807e-39 324 280
0.0062067998 0.708 -0.049654398 9.9582575e-39 325 280
0.0074481601 0.708 -0.049654398 9.406883e-39 326 280
0.0087140659 0.70999998 -0.049794663 9.4994373e-39 327 280
0.0099729598 0.71100003 -0.049864799 9.9629294e-39 328 280
0.01121958 0.71100003 -0.049864799 1.0977083e-38 329 280
0.012553867 0.71600002 -0.050215468 1.1252221e-38 330 280
0.013828539 0.71700001 -0.0502856 1.0606851e-38 331 280
0.015085679 0.71700001 -0.0502856 1.0237703e-38 332 280
0.016342819 0.71700001 -0.0502856 1.0421734e-38 333 280
0.017599959 0.71700001 -0.0502856 1.3831165e-38 334 280
-0.041774917 0.722 -0.051902171 1.5948768e-38 287 281
-0.040509012 0.722 -0.051902171 1.5580355e-38 288 281
-0.039134402 0.72000003 -0.051758397 1.5027181e-38 289 281
-0.037871998 0.72000003 -0.051758397 1.3645341e-38 290 281
-0.036558751 0.71899998 -0.05168651 1.2447158e-38 291 281
-0.035150826 0.71600002 -0.051470853 1.0418514e-38 292 281
-0.033800758 0.71399999 -0.05132708 1.0142286e-38 293 281
-0.032412119 0.71100003 -0.051111419 1.0693674e-38 294 281
-0.031165501 0.71100003 -0.051111419 1.0693674e-38 295 281
-0.029876797 0.70999998 -0.051039528 1.023557e-38 296 281
-0.02855128 0.708 -0.050895758 1.0143375e-38 297 281
-0.027271347 0.70700002 -0.050823875 9.6841985e-39 298 281
-0.025994917 0.70599997 -0.050751984 9.5920029e-39 299 281
-0.024757065 0.70599997 -0.050751984 9.6838426e-39 300 281
-0.023452586 0.704 -0.050608214 9.7760382e-39 301 281
-0.022218239 0.704 -0.050608214 9.4097696e-39 302 281
-0.020983893 0.704 -0.050608214 9.4097696e-39 303 281
-0.019749546 0.704 -0.050608214 9.4072543e-39 304 281
-0.018488899 0.70300001 -0.050536323 9.1306688e-39 305 281
-0.017256306 0.70300001 -0.050536323 9.3139839e-39 306 281
-0.016023712 0.70300001 -0.050536323 9.4061795e-39 307 281
-0.014812159 0.704 -0.050608214 9.3143398e-39 308 281
-0.013577812 0.704 -0.050608214 9.3143398e-39 309 281
-0.012343466 0.704 -0.050608214 9.3136209e-39 310 281
-0.011109119 0.704 -0.050608214 9.3136209e-39 311 281
-0.0098747732 0.704 -0.050608214 9.1306688e-39 312 281
-0.0086404262 0.704 -0.050608214 9.1306688e-39 313 281
-0.0074060797 0.704 -0.050608214 9.223942e-39 314 281
-0.0061717331 0.704 -0.050608214 8.9469964e-39 315 281
-0.0049373866 0.704 -0.050608214 9.4047376e-39 316 281
-0.0037030398 0.704 -0.050608214 9.4047376e-39 317 281
-0.0024686933 0.704 -0.050608214 9.4969332e-39 318 281
-0.0012378532 0.70599997 -0.050751984 9.5891288e-39 319 281
0 0.70599997 -0.050751984 9.1310247e-39 320 281
0.0012396066 0.70700002 -0.050823875 9.0388291e-39 321 281
0.0024792133 0.70700002 -0.050823875 9.1299457e-39 322 281
0.0037188199 0.70700002 -0.050823875 9.1299457e-39 323 281
0.0049654399 0.708 -0.050895758 9.590198e-39 324 281
0.0062067998 0.708 -0.050895758 1.1065328e-38 325 281
0.0074691991 0.70999998 -0.051039528 1.0517902e-38 326 281
0.0087140659 0.70999998 -0.051039528 1.0794489e-38 327 281
0.0099729598 0.71100003 -0.051111419 1.1345498e-38 328 281
0.011251139 0.713 -0.051255193 1.1252944e-38 329 281
0.012553867 0.71600002 -0.051470853 9.3193565e-39 330 281
0.013828539 0.71700001 -0.051542737 8.4895958e-39 331 281
0.015085679 0.71700001 -0.051542737 1.096952e-38 332 281
0.016342819 0.71700001 -0.051542737 1.1984032e-38 333 281
0.017599959 0.71700001 -0.051542737 1.410667e-38 334 281
-0.040509012 0.722 -0.053168077 1.5670753e-38 288 282
-0.039134402 0.72000003 -0.053020801 1.4749155e-38 289 282
-0.037871998 0.72000003 -0.053020801 1.3553146e-38 290 282
-0.036609601 0.72000003 -0.053020801 1.2447158e-38 291 282
-0.035298105 0.71899998 -0.05294716 9.866059e-39 292 282
-0.03389544 0.71600002 -0.052726239 9.866059e-39 293 282
-0.032503292 0.713 -0.052505318 1.0325968e-38 294 282
-0.031253166 0.713 -0.052505318 1.0418164e-38 295 282
-0.029876797 0.70999998 -0.052284397 1.023557e-38 296 282
-0.028631933 0.70999998 -0.052284397 9.9589847e-39 297 282
-0.027309919 0.708 -0.052137118 9.866436e-39 298 282
-0.026068559 0.708 -0.052137118 9.6820433e-39 299 282
-0.024792133 0.70700002 -0.05206348 9.4061795e-39 300 282
-0.023519212 0.70599997 -0.051989835 9.5909295e-39 301 282
-0.022218239 0.704 -0.051842559 9.4083375e-39 302 282
-0.020983893 0.704 -0.051842559 9.4083375e-39 303 282
-0.019749546 0.704 -0.051842559 9.2217882e-39 304 282
-0.018515198 0.704 -0.051842559 9.0373956e-39 305 282
-0.017280852 0.704 -0.051842559 9.3121874e-39 306 282
-0.016046507 0.704 -0.051842559 9.4043844e-39 307 282
-0.014812159 0.704 -0.051842559 9.4061795e-39 308 282
-0.013577812 0.704 -0.051842559 9.3139839e-39 309 282
-0.012343466 0.704 -0.051842559 9.4969332e-39 310 282
-0.011109119 0.704 -0.051842559 9.4969332e-39 311 282
-0.0098747732 0.704 -0.051842559 9.2221414e-39 312 282
-0.0086404262 0.704 -0.051842559 9.4987283e-39 313 282
-0.0074060797 0.704 -0.051842559 9.4072515e-39 314 282
-0.0061717331 0.704 -0.051842559 9.0388291e-39 315 282
-0.0049514128 0.70599997 -0.051989835 9.1295926e-39 316 282
-0.0037135598 0.70599997 -0.051989835 9.0373956e-39 317 282
-0.0024757064 0.70599997 -0.051989835 9.1295898e-39 318 282
-0.0012378532 0.70599997 -0.051989835 9.2217854e-39 319 282
0 0.70700002 -0.05206348 9.3150559e-39 320 282
0.0012396066 0.70700002 -0.05206348 9.0388291e-39 321 282
0.00248272 0.708 -0.052137118 8.762238e-39 322 282
0.00372408 0.708 -0.052137118 8.9466307e-39 323 282
0.0049654399 0.708 -0.052137118 9.7767445e-39 324 282
0.0062243328 0.70999998 -0.052284397 1.1067483e-38 325 282
0.0074691991 0.70999998 -0.052284397 1.0794842e-38 326 282
0.0087140659 0.70999998 -0.052284397 1.0702647e-38 327 282
0.010001013 0.713 -0.052505318 1.12533e-38 328 282
0.011266919 0.71399999 -0.052578956 1.1068908e-38 329 282
0.012553867 0.71600002 -0.052726239 9.2267951e-39 330 282
0.013828539 0.71700001 -0.052799881 7.9360563e-39 331 282
0.015085679 0.71700001 -0.052799881 1.0881275e-38 332 282
0.016320027 0.71600002 -0.052726239 1.1987621e-38 333 282
0.017575413 0.71600002 -0.052726239 1.3830443e-38 334 282
-0.039134402 0.72000003 -0.054283202 1.4472566e-38 289 283
-0.037871998 0.72000003 -0.054283202 1.3368754e-38 290 283
-0.036609601 0.72000003 -0.054283202 1.2447158e-38 291 283
-0.035199918 0.71700001 -0.054057021 9.590554e-39 292 283
-0.03389544 0.71600002 -0.053981625 9.1295758e-39 293 283
-0.032548878 0.71399999 -0.053830836 1.0232699e-38 294 283
-0.031253166 0.713 -0.053755447 1.0417092e-38 295 283
-0.029918881 0.71100003 -0.053604662 1.0234495e-38 296 283
-0.028672259 0.71100003 -0.053604662 1.01423e-38 297 283
-0.027387066 0.70999998 -0.053529263 9.9579071e-39 298 283
-0.026068559 0.708 -0.053378478 9.6816804e-39 299 283
-0.024827199 0.708 -0.053378478 9.4958612e-39 300 283
-0.023552528 0.70700002 -0.053303085 9.4958612e-39 301 283
-0.022312919 0.70700002 -0.053303085 9.4973017e-39 302 283
-0.021043506 0.70599997 -0.053227689 9.4973017e-39 303 283
-0.019749546 0.704 -0.053076904 9.1288752e-39 304 283
-0.018515198 0.704 -0.053076904 8.9441252e-39 305 283
-0.017280852 0.704 -0.053076904 9.2199918e-39 306 283
-0.016046507 0.704 -0.053076904 9.4965801e-39 307 283
-0.014854239 0.70599997 -0.053227689 9.3150587e-39 308 283
-0.013616386 0.70599997 -0.053227689 9.3150587e-39 309 283
-0.012378532 0.70599997 -0.053227689 9.4065326e-39 310 283
-0.011140679 0.70599997 -0.053227689 9.4065326e-39 311 283
-0.0099028256 0.70599997 -0.053227689 9.2217854e-39 312 283
-0.0086649731 0.70599997 -0.053227689 9.2217854e-39 313 283
-0.0074271196 0.70599997 -0.053227689 9.6802483e-39 314 283
-0.0061892662 0.70599997 -0.053227689 9.4958584e-39 315 283
-0.0049514128 0.70599997 -0.053227689 9.2210694e-39 316 283
-0.0037135598 0.70599997 -0.053227689 9.1288724e-39 317 283
-0.0024792133 0.70700002 -0.053303085 8.6707683e-39 318 283
-0.0012396066 0.70700002 -0.053303085 8.9469964e-39 319 283
0 0.70700002 -0.053303085 9.3150587e-39 320 283
0.00124136 0.708 -0.053378478 9.1306688e-39 321 283
0.00248272 0.708 -0.053378478 8.3044997e-39 322 283
0.00372408 0.708 -0.053378478 8.9498691e-39 323 283
0.0049794666 0.70999998 -0.053529263 1.023952e-38 324 283
0.0062243328 0.70999998 -0.053529263 1.088489e-38 325 283
0.0074797203 0.71100003 -0.053604662 1.0518616e-38 326 283
0.0087263398 0.71100003 -0.053604662 1.0518616e-38 327 283
0.010001013 0.713 -0.053755447 1.088524e-38 328 283
0.011266919 0.71399999 -0.053830836 1.0793045e-38 329 283
0.012553867 0.71600002 -0.053981625 9.4101045e-39 330 283
0.013828539 0.71700001 -0.054057021 8.7647351e-39 331 283
0.015085679 0.71700001 -0.054057021 1.134153e-38 332 283
0.016320027 0.71600002 -0.053981625 1.2263127e-38 333 283
-0.035199918 0.71700001 -0.055314157 9.7749424e-39 292 284
-0.03389544 0.71600002 -0.055237014 9.4983555e-39 293 284
-0.032548878 0.71399999 -0.05508272 1.0049384e-38 294 284
-0.031253166 0.713 -0.055005573 9.9571883e-39 295 284
-0.029918881 0.71100003 -0.054851279 1.0141584e-38 296 284
-0.028672259 0.71100003 -0.054851279 1.0049387e-38 297 284
-0.027387066 0.70999998 -0.054774132 1.0048308e-38 298 284
-0.026068559 0.708 -0.054619838 9.8639179e-39 299 284
-0.024827199 0.708 -0.054619838 9.4043816e-39 300 284
-0.023552528 0.70700002 -0.054542694 9.4965773e-39 301 284
-0.022312919 0.70700002 -0.054542694 9.4972961e-39 302 284
-0.021073313 0.70700002 -0.054542694 9.4972961e-39 303 284
-0.019833706 0.70700002 -0.054542694 9.3114685e-39 304 284
-0.018567799 0.70599997 -0.054465543 9.3114685e-39 305 284
-0.017329946 0.70599997 -0.054465543 8.7615318e-39 306 284
-0.016092092 0.70599997 -0.054465543 8.8537274e-39 307 284
-0.014854239 0.70599997 -0.054465543 9.1306716e-39 308 284
-0.013616386 0.70599997 -0.054465543 9.038476e-39 309 284
-0.012378532 0.70599997 -0.054465543 9.4065354e-39 310 284
-0.011140679 0.70599997 -0.054465543 9.2217854e-39 311 284
-0.0099028256 0.70599997 -0.054465543 9.1306716e-39 312 284
-0.0086649731 0.70599997 -0.054465543 8.9462804e-39 313 284
-0.0074271196 0.70599997 -0.054465543 9.4036642e-39 314 284
-0.0061892662 0.70599997 -0.054465543 9.4958612e-39 315 284
-0.0049584266 0.70700002 -0.054542694 8.8540833e-39 316 284
-0.0037188199 0.70700002 -0.054542694 8.4853022e-39 317 284
-0.0024792133 0.70700002 -0.054542694 8.1175987e-39 318 284
-0.00124136 0.708 -0.054619838 8.6704123e-39 319 284
0 0.708 -0.054619838 1.0239167e-38 320 284
0.00124136 0.708 -0.054619838 1.0423198e-38 321 284
0.0024897333 0.70999998 -0.054774132 9.872896e-39 322 284
0.0037345996 0.70999998 -0.054774132 1.0149842e-38 323 284
0.0049794666 0.70999998 -0.054774132 1.0701212e-38 324 284
0.0062243328 0.70999998 -0.054774132 1.0701212e-38 325 284
0.0074797203 0.71100003 -0.054851279 1.0701565e-38 326 284
0.0087263398 0.71100003 -0.054851279 1.0793761e-38 327 284
0.01001504 0.71399999 -0.05508272 1.0701565e-38 328 284
0.01129848 0.71600002 -0.055237014 1.0517534e-38 329 284
0.0125714 0.71700001 -0.055314157 1.0239145e-38 330 284
0.013867113 0.71899998 -0.055468451 9.9625581e-39 331 284
0.01512776 0.71899998 -0.055468451 1.0790874e-38 332 284
-0.033942781 0.71700001 -0.056571297 1.0050803e-38 293 285
-0.032548878 0.71399999 -0.0563346 1.0232333e-38 294 285
-0.031296998 0.71399999 -0.0563346 1.0047583e-38 295 285
-0.030003037 0.713 -0.056255698 1.0048308e-38 296 285
-0.028672259 0.71100003 -0.056097899 1.0140503e-38 297 285
-0.027387066 0.70999998 -0.056018997 9.8646367e-39 298 285
-0.026142199 0.70999998 -0.056018997 9.7724411e-39 299 285
-0.024827199 0.708 -0.055861197 9.6813245e-39 300 285
-0.023585839 0.708 -0.055861197 9.5891288e-39 301 285
-0.022344479 0.708 -0.055861197 9.4043844e-39 302 285
-0.021073313 0.70700002 -0.055782299 9.3121874e-39 303 285
-0.019833706 0.70700002 -0.055782299 9.0363208e-39 304 285
-0.018594101 0.70700002 -0.055782299 9.2210722e-39 305 285
-0.017354494 0.70700002 -0.055782299 8.6704123e-39 306 285
-0.016114887 0.70700002 -0.055782299 8.7629681e-39 307 285
-0.01487528 0.70700002 -0.055782299 9.1288752e-39 308 285
-0.013616386 0.70599997 -0.055703394 8.9441252e-39 309 285
-0.012378532 0.70599997 -0.055703394 8.9437622e-39 310 285
-0.011140679 0.70599997 -0.055703394 9.5891316e-39 311 285
-0.0099028256 0.70599997 -0.055703394 9.6845615e-39 312 285
-0.0086649731 0.70599997 -0.055703394 9.3161377e-39 313 285
-0.0074376399 0.70700002 -0.055782299 8.9466335e-39 314 285
-0.0061980332 0.70700002 -0.055782299 9.0388291e-39 315 285
-0.0049584266 0.70700002 -0.055782299 8.4867371e-39 316 285
-0.00372408 0.708 -0.055861197 7.9339221e-39 317 285
-0.00248272 0.708 -0.055861197 7.1074026e-39 318 285
-0.00124136 0.708 -0.055861197 7.6605764e-39 319 285
0 0.70999998 -0.056018997 1.1161117e-38 320 285
0.0012448666 0.70999998 -0.056018997 1.1345509e-38 321 285
0.0024897333 0.70999998 -0.056018997 1.107035e-38 322 285
0.0037345996 0.70999998 -0.056018997 1.0978155e-38 323 285
0.0049794666 0.70999998 -0.056018997 1.0610451e-38 324 285
0.0062330998 0.71100003 -0.056097899 1.0425701e-38 325 285
0.0074797203 0.71100003 -0.056097899 1.0425704e-38 326 285
0.0087508867 0.713 -0.056255698 1.0425704e-38 327 285
0.010043093 0.71600002 -0.056492399 1.0149836e-38 328 285
0.01131426 0.71700001 -0.056571297 1.0242392e-38 329 285
0.0125714 0.71700001 -0.056571297 1.0424252e-38 330 285
-0.031296998 0.71399999 -0.057586476 1.0048658e-38 295 286
-0.030045118 0.71399999 -0.057586476 1.0048308e-38 296 286
-0.028752912 0.713 -0.057505824 9.7717222e-39 297 286
-0.027425639 0.71100003 -0.057344519 9.6802483e-39 298 286
-0.026142199 0.70999998 -0.057263866 9.7724439e-39 299 286
-0.024897331 0.70999998 -0.057263866 9.8624857e-39 300 286
-0.023652466 0.70999998 -0.057263866 9.5862576e-39 301 286
-0.022344479 0.708 -0.057102561 9.4022321e-39 302 286
-0.021103119 0.708 -0.057102561 9.4022321e-39 303 286
-0.01986176 0.708 -0.057102561 8.8530085e-39 304 286
-0.018594101 0.70700002 -0.057021905 9.2217911e-39 305 286
-0.017354494 0.70700002 -0.057021905 8.763687e-39 306 286
-0.016114887 0.70700002 -0.057021905 8.5789356e-39 307 286
-0.01487528 0.70700002 -0.057021905 9.3118315e-39 308 286
-0.013635674 0.70700002 -0.057021905 9.4043872e-39 309 286
-0.012396066 0.70700002 -0.057021905 9.4061795e-39 310 286
-0.011156459 0.70700002 -0.057021905 1.0144103e-38 311 286
-0.0099168532 0.70700002 -0.057021905 1.0055142e-38 312 286
-0.008677247 0.70700002 -0.057021905 9.8711107e-39 313 286
-0.0074481601 0.708 -0.057102561 9.777476e-39 314 286
-0.0062067998 0.708 -0.057102561 9.777476e-39 315 286
-0.0049654399 0.708 -0.057102561 9.6867153e-39 316 286
-0.00372408 0.708 -0.057102561 9.8711079e-39 317 286
