# .PCD v0.7 - Point Cloud Data file format
VERSION 0.7
FIELDS x y z
SIZE 4 4 4
TYPE F F F
COUNT 1 1 1
WIDTH 1295
HEIGHT 1
VIEWPOINT 0 0 0 1 0 0 0
POINTS 1295
DATA ascii
-0.019547766 -0.0035771392 0.049063701
-0.017455079 -0.0063487571 0.049207497
-0.014683463 -0.0063487571 0.05020139
-0.017455079 -0.0035771392 0.050166149
-0.014683463 -0.0035771392 0.051186994
-0.011911845 -0.0063487571 0.050836138
-0.009140227 -0.0063487571 0.05156897
-0.012535347 -0.0035771392 0.051835317
-0.011911845 -0.0040593445 0.051835317
-0.009140227 -0.0058027767 0.051835317
-0.011911845 -0.0035771392 0.052028246
-0.009140227 -0.0035771392 0.052867193
-0.0077309087 -0.011891991 0.049063701
-0.006368611 -0.012586612 0.049063701
-0.003596995 -0.0134106 0.049063701
-0.006368611 -0.011891991 0.049402591
-0.003596995 -0.011891991 0.049862612
-0.006368611 -0.0091203749 0.050942972
-0.003596995 -0.0091203749 0.051554296
-0.00082537904 -0.013389332 0.049063701
-0.00082537904 -0.011891991 0.049937092
-0.00082537904 -0.0091203749 0.05168464
-0.0082364418 -0.0063487571 0.051835317
-0.006368611 -0.0075187068 0.051835317
-0.003596995 -0.0086727552 0.051835317
-0.00082537904 -0.0088858455 0.051835317
-0.006368611 -0.0063487571 0.052439187
-0.003596995 -0.0063487571 0.053235117
-0.006368611 -0.0035771392 0.053800039
-0.0040785931 -0.0035771392 0.054606929
-0.003596995 -0.0038510375 0.054606929
-0.003596995 -0.0035771392 0.054750651
-0.00082537904 -0.0063487571 0.053466551
-0.00082537904 -0.004516989 0.054606929
-0.00082537904 -0.0035771392 0.055177942
-0.019804893 0.0019660927 0.049063701
-0.017455079 -0.00080552325 0.050640982
-0.014683463 -0.00080552325 0.051820595
-0.017455079 0.0019660927 0.050591059
-0.015268069 0.0019660927 0.051835317
-0.014683463 -0.00070056319 0.051835317
-0.014646556 -0.00080552325 0.051835317
-0.01963076 0.0047377087 0.049063701
-0.017455079 0.0047377087 0.050658882
-0.015725438 0.0047377087 0.051835317
-0.014683463 0.0019660927 0.052144166
-0.011911845 -0.00080552325 0.052964866
-0.009140227 -0.00080552325 0.053994849
-0.011911845 0.0019660927 0.053575471
-0.0096313171 0.0019660927 0.054606929
-0.009140227 0.0011585206 0.054606929
-0.009140227 0.0019660927 0.054810993
-0.014683463 0.0047377087 0.052473173
-0.011911845 0.0047377087 0.054030538
-0.010762803 0.0047377087 0.054606929
-0.009140227 0.0047377087 0.055380173
-0.0074051507 -0.00080552325 0.054606929
-0.006368611 -0.0017949678 0.054606929
-0.006368611 -0.00080552325 0.055021919
-0.003596995 -0.00080552325 0.056107171
-0.006368611 0.0019660927 0.055964239
-0.003596995 0.0019660927 0.056994058
-0.00082537904 -0.00080552325 0.056699656
-0.0021462813 0.0019660927 0.057378553
-0.00082537904 0.0010090135 0.057378553
-0.006368611 0.0047377087 0.056573465
-0.0038548298 0.0047377087 0.057378553
-0.003596995 0.0042192973 0.057378553
-0.00082537904 0.0019660927 0.057613149
-0.003596995 0.0047377087 0.057444744
-0.00082537904 0.0047377087 0.057997257
-0.022575291 0.013052557 0.013032686
-0.020226695 0.013052557 0.010375306
-0.021634674 0.015824173 0.013032686
-0.020226695 0.015824173 0.011281786
-0.02032459 0.018595789 0.013032686
-0.020226695 0.018595789 0.012903506
-0.020226695 0.018771373 0.013032686
-0.014683463 0.013013482 0.007489454
-0.014660796 0.013052557 0.007489454
-0.009140227 0.013052557 0.0064561944
-0.01011597 0.018595789 0.007489454
-0.009140227 0.018595789 0.0073459484
-0.014683463 0.013052557 0.0074947309
-0.020096857 0.013052557 0.01026107
-0.019116899 0.015824173 0.01026107
-0.017455079 0.013052557 0.0085088164
-0.017455079 0.015824173 0.0091769006
-0.014683463 0.015824173 0.0080059376
-0.017480871 0.018595789 0.01026107
-0.017455079 0.018595789 0.010243138
-0.014683463 0.018595789 0.0087704621
-0.009140227 0.019239113 0.007489454
-0.017455079 0.018632527 0.01026107
-0.015234226 0.021367408 0.01026107
-0.014683463 0.021367408 0.0099549145
-0.014683463 0.021930382 0.01026107
-0.018498402 0.021367408 0.013032686
-0.017455079 0.021367408 0.011945106
-0.017455079 0.022682138 0.013032686
-0.016199039 0.024139024 0.013032686
-0.014683463 0.024139024 0.01170834
-0.009140227 0.024139024 0.009095585
-0.014683463 0.025714215 0.013032686
-0.0097173192 0.02968226 0.013032686
-0.009140227 0.02968226 0.012682967
-0.003596995 0.021471467 0.007489454
-0.003596995 0.018595789 0.0068648849
-0.003596995 0.024139024 0.0081894379
-0.003596995 0.02968226 0.01063429
-0.009140227 0.030041378 0.013032686
-0.003596995 0.032779742 0.013032686
-0.026321856 0.010280941 0.018575918
-0.025769927 0.010280941 0.01723903
-0.025769927 0.011959132 0.018575918
-0.02336782 0.010280941 0.013032686
-0.025063859 0.010280941 0.015804302
-0.024166126 0.013052557 0.015804302
-0.022998311 0.011624411 0.013032686
-0.022998311 0.013052557 0.013699913
-0.025400229 0.013052557 0.018575918
-0.023199361 0.015824173 0.015804302
-0.022998311 0.015824173 0.015388852
-0.022998311 0.016380392 0.015804302
-0.02206043 0.018595789 0.015804302
-0.024380874 0.015824173 0.018575918
-0.023215549 0.018595789 0.018575918
-0.022998311 0.018595789 0.017975524
-0.027191782 0.010280941 0.021347536
-0.026217798 0.013052557 0.021347536
-0.025769927 0.013052557 0.01967461
-0.027769439 0.010280941 0.024119154
-0.026839294 0.013052557 0.024119154
-0.025769927 0.01434651 0.021347536
-0.025847828 0.015824173 0.024119154
-0.025769927 0.015824173 0.023738697
-0.025769927 0.016040314 0.024119154
-0.025240241 0.015824173 0.021347536
-0.02405316 0.018595789 0.021347536
-0.024692232 0.018595789 0.024119154
-0.020439021 0.021367408 0.015804302
-0.020226695 0.021367408 0.015439123
-0.020226695 0.021684334 0.015804302
-0.022998311 0.019080289 0.018575918
-0.0217553 0.021367408 0.018575918
-0.020226695 0.023540441 0.018575918
-0.022998311 0.02071166 0.021347536
-0.022626363 0.021367408 0.021347536
-0.020626798 0.024139024 0.021347536
-0.020226695 0.024139024 0.019904971
-0.023234591 0.021367408 0.024119154
-0.022998311 0.021367408 0.022987477
-0.022998311 0.021779966 0.024119154
-0.021318385 0.024139024 0.024119154
-0.020226695 0.024642911 0.021347536
-0.020226695 0.025441833 0.024119154
-0.028541544 0.0086041726 0.02689077
-0.028206924 0.010280941 0.02689077
-0.027372826 0.013052557 0.02689077
-0.028541544 0.0097247586 0.029662386
-0.028419174 0.010280941 0.029662386
-0.027553447 0.013052557 0.029662386
-0.026310127 0.015824173 0.02689077
-0.025769927 0.017166693 0.02689077
-0.026389871 0.015824173 0.029662386
-0.025769927 0.017302405 0.029662386
-0.025144253 0.018595789 0.02689077
-0.025218489 0.018595789 0.029662386
-0.028541544 0.0090415552 0.032434002
-0.028252415 0.010280941 0.032434002
-0.027325846 0.013052557 0.032434002
-0.026161825 0.015824173 0.032434002
-0.025769927 0.016775869 0.032434002
-0.025010757 0.018595789 0.032434002
-0.023719884 0.021367408 0.02689077
-0.022998311 0.022609193 0.02689077
-0.021898499 0.024139024 0.02689077
-0.023886118 0.021367408 0.029662386
-0.022998311 0.022914663 0.029662386
-0.022119511 0.024139024 0.029662386
-0.020226695 0.026052181 0.02689077
-0.020226695 0.026300419 0.029662386
-0.023694601 0.021367408 0.032434002
-0.022998311 0.022562183 0.032434002
-0.021827428 0.024139024 0.032434002
-0.020226695 0.025976937 0.032434002
-0.018354159 0.024139024 0.015804302
-0.017455079 0.024139024 0.014515255
-0.019765271 0.024139024 0.018575918
-0.017455079 0.025205757 0.015804302
-0.015903447 0.026910637 0.015804302
-0.014683463 0.026910637 0.014296321
-0.014683463 0.028095115 0.015804302
-0.017455079 0.026896987 0.018575918
-0.017443305 0.026910637 0.018575918
-0.014683463 0.0296208 0.018575918
-0.013413038 0.026910637 0.013032686
-0.012812104 0.02968226 0.015804302
-0.011911845 0.028157312 0.013032686
-0.011911845 0.02968226 0.014813256
-0.014608387 0.02968226 0.018575918
-0.018349128 0.026910637 0.021347536
-0.017455079 0.026910637 0.018603656
-0.017455079 0.027948175 0.021347536
-0.015682163 0.02968226 0.021347536
-0.014683463 0.02968226 0.018725213
-0.018948259 0.026910637 0.024119154
-0.017455079 0.028573032 0.024119154
-0.01634944 0.02968226 0.024119154
-0.01943366 0.026910637 0.02689077
-0.017455079 0.02907325 0.02689077
-0.016879961 0.02968226 0.02689077
-0.019658891 0.026910637 0.029662386
-0.017455079 0.029361468 0.029662386
-0.017164756 0.02968226 0.029662386
-0.01939366 0.026910637 0.032434002
-0.017455079 0.029151317 0.032434002
-0.0169842 0.02968226 0.032434002
-0.011911845 0.030365597 0.015804302
-0.009140227 0.032210093 0.015804302
-0.011911845 0.031756166 0.018575918
-0.010890499 0.032453876 0.018575918
-0.009140227 0.032453876 0.01622848
-0.009140227 0.033576492 0.018575918
-0.014683463 0.030497972 0.021347536
-0.014683463 0.031131219 0.024119154
-0.012091555 0.032453876 0.021347536
-0.011911845 0.032453876 0.020824112
-0.011911845 0.0325821 0.021347536
-0.009140227 0.034471218 0.021347536
-0.01293646 0.032453876 0.024119154
-0.011911845 0.033171002 0.024119154
-0.009140227 0.034954008 0.024119154
-0.0087129176 0.032453876 0.015804302
-0.006368611 0.031594563 0.013032686
-0.006368611 0.032453876 0.014022022
-0.0044483952 0.032453876 0.013032686
-0.006368611 0.033705022 0.015804302
-0.003596995 0.03490651 0.015804302
-0.006368611 0.035092089 0.018575918
-0.0060703196 0.035225492 0.018575918
-0.003596995 0.035225492 0.016367659
-0.0026626848 0.035225492 0.015804302
-0.00082537904 0.033610489 0.013032686
-0.00082537904 0.035225492 0.01499811
-0.003596995 0.036217567 0.018575918
-0.00082537904 0.035729814 0.015804302
-0.00082537904 0.037009832 0.018575918
-0.0077625923 0.035225492 0.021347536
-0.006368611 0.035225492 0.018941004
-0.0086288154 0.035225492 0.024119154
-0.006368611 0.035886634 0.021347536
-0.003596995 0.037032854 0.021347536
-0.006368611 0.036359202 0.024119154
-0.003596995 0.037560727 0.024119154
-0.00082537904 0.037793819 0.021347536
0.00034242496 0.037997108 0.021347536
-0.0022143386 0.037997108 0.024119154
-0.00082537904 0.037997108 0.022307616
-0.00082537904 0.03832918 0.024119154
-0.014683463 0.031681854 0.02689077
-0.014683463 0.031986881 0.029662386
-0.013634289 0.032453876 0.02689077
-0.011911845 0.033586215 0.02689077
-0.009140227 0.035206523 0.02689077
-0.014050549 0.032453876 0.029662386
-0.011911845 0.033848684 0.029662386
-0.0094336867 0.035225492 0.029662386
-0.009140227 0.035225492 0.027161378
-0.009140227 0.035373073 0.029662386
-0.014683463 0.031874117 0.032434002
-0.013939625 0.032453876 0.032434002
-0.011911845 0.033816684 0.032434002
-0.0094163232 0.035225492 0.032434002
-0.009140227 0.035225492 0.033872236
-0.009140227 0.035369087 0.032434002
-0.0091034435 0.035225492 0.02689077
-0.006368611 0.036657538 0.02689077
-0.003596995 0.037905399 0.02689077
-0.006368611 0.036845688 0.029662386
-0.0039433055 0.037997108 0.029662386
-0.003596995 0.037997108 0.027949225
-0.003596995 0.038127381 0.029662386
-0.0033349097 0.037997108 0.02689077
-0.00082537904 0.038693722 0.02689077
-0.00082537904 0.038911875 0.029662386
-0.006368611 0.036877763 0.032434002
-0.0039996207 0.037997108 0.032434002
-0.003596995 0.038142618 0.032434002
-0.003596995 0.037997108 0.033652067
-0.00082537904 0.038851265 0.032434002
-0.026698442 0.010280941 0.037977234
-0.02589814 0.013052557 0.037977234
-0.025769927 0.0093428455 0.04074885
-0.025769927 0.010280941 0.04008618
-0.025769927 0.013052557 0.038284175
-0.02544713 0.010280941 0.04074885
-0.02465854 0.013052557 0.04074885
-0.025769927 0.01354124 0.037977234
-0.025769927 0.015824173 0.035408489
-0.025072226 0.015824173 0.037977234
-0.023986073 0.018595789 0.037977234
-0.023967199 0.015824173 0.04074885
-0.022998311 0.018562533 0.04074885
-0.022998311 0.018595789 0.040710784
-0.022983057 0.018595789 0.04074885
-0.024099624 0.010280941 0.043520465
-0.023419864 0.013052557 0.043520465
-0.022998311 0.0081085637 0.046292081
-0.022998311 0.010280941 0.04556457
-0.022490589 0.010280941 0.046292081
-0.022998311 0.013052557 0.044395342
-0.021676665 0.013052557 0.046292081
-0.022998311 0.015079971 0.043520465
-0.022998311 0.015824173 0.043125018
-0.022830119 0.015824173 0.043520465
-0.021663377 0.018595789 0.043520465
-0.020827578 0.015824173 0.046292081
-0.020226695 0.016983956 0.046292081
-0.020226695 0.018595789 0.045293707
-0.022998311 0.020564657 0.037977234
-0.022998311 0.021367408 0.036276143
-0.02250245 0.021367408 0.037977234
-0.020283623 0.024139024 0.037977234
-0.021283206 0.021367408 0.04074885
-0.020226695 0.022623125 0.04074885
-0.020226695 0.024139024 0.0381235
-0.020226695 0.024203818 0.037977234
-0.020226695 0.020463638 0.043520465
-0.020226695 0.021367408 0.042430058
-0.020226695 0.010280941 0.048410017
-0.020226695 0.013052557 0.047613762
-0.020226695 0.015824173 0.046768904
-0.019013943 0.018595789 0.046292081
-0.018848002 0.024139024 0.04074885
-0.017924286 0.026910637 0.037977234
-0.017455079 0.027454216 0.037977234
-0.015118876 0.02968226 0.037977234
-0.017455079 0.025654636 0.04074885
-0.017455079 0.026910637 0.038925584
-0.016165238 0.026910637 0.04074885
-0.014683463 0.028125796 0.04074885
-0.014683463 0.02968226 0.038575158
-0.012675289 0.02968226 0.04074885
-0.019448118 0.021367408 0.043520465
-0.017455079 0.023572601 0.043520465
-0.017455079 0.024139024 0.042758733
-0.016874535 0.024139024 0.043520465
-0.017455079 0.020611029 0.046292081
-0.017455079 0.021367408 0.045766886
-0.01685063 0.021367408 0.046292081
-0.014683463 0.023504306 0.046292081
-0.014683463 0.024139024 0.045660783
-0.013905935 0.024139024 0.046292081
-0.014683463 0.025954727 0.043520465
-0.014683463 0.026910637 0.042277418
-0.013429632 0.026910637 0.043520465
-0.011911845 0.028179411 0.043520465
-0.011911845 0.02968226 0.041510202
-0.010144606 0.02968226 0.043520465
-0.011911845 0.025983628 0.046292081
-0.011911845 0.026910637 0.045229863
-0.011010565 0.026910637 0.046292081
-0.009140227 0.02853908 0.046292081
-0.009140227 0.02968226 0.04472252
-0.0075925291 0.02968226 0.046292081
-0.019340035 0.010280941 0.049063701
-0.018237498 0.013052557 0.049063701
-0.017455079 0.010280941 0.050410144
-0.015291685 0.010280941 0.051835317
-0.017455079 0.013052557 0.049601194
-0.014683463 0.011650473 0.051835317
-0.014683463 0.013052557 0.051377147
-0.01390167 0.013052557 0.051835317
-0.017455079 0.014578272 0.049063701
-0.017455079 0.015824173 0.048567545
-0.01665704 0.015824173 0.049063701
-0.017455079 0.018595789 0.047363482
-0.01478985 0.018595789 0.049063701
-0.014683463 0.015824173 0.050321475
-0.014683463 0.018595789 0.049132682
-0.012128087 0.015824173 0.051835317
-0.011911845 0.01616367 0.051835317
-0.011911845 0.018595789 0.050846498
-0.010040019 0.018595789 0.051835317
-0.014683463 0.010280941 0.052225418
-0.011911845 0.010280941 0.053896517
-0.010610353 0.010280941 0.054606929
-0.011911845 0.013052557 0.052962042
-0.009140227 0.012841158 0.054606929
-0.009140227 0.013052557 0.054524213
-0.009140227 0.010280941 0.055412583
-0.011911845 0.015824173 0.051955894
-0.009140227 0.015824173 0.053428166
-0.009140227 0.018595789 0.052248374
-0.0089919567 0.013052557 0.054606929
-0.006368611 0.010280941 0.056820199
-0.004943002 0.010280941 0.057378553
-0.006368611 0.013052557 0.055998616
-0.003596995 0.012251824 0.057378553
-0.003596995 0.013052557 0.057117999
-0.0026700608 0.013052557 0.057378553
-0.0066553503 0.015824173 0.054606929
-0.006368611 0.016106136 0.054606929
-0.006368611 0.018595789 0.053400747
-0.003596995 0.018382151 0.054606929
-0.003596995 0.018595789 0.054490551
-0.006368611 0.015824173 0.054738633
-0.003596995 0.015824173 0.055940464
-0.0032910258 0.018595789 0.054606929
-0.00082537904 0.014069889 0.057378553
-0.00082537904 0.015824173 0.056666628
-0.00082537904 0.018595789 0.055341311
-0.014683463 0.018755388 0.049063701
-0.014683463 0.021367408 0.047810111
-0.01265247 0.021367408 0.049063701
-0.011911845 0.022189379 0.049063701
-0.011911845 0.024139024 0.047846869
-0.0098659396 0.024139024 0.049063701
-0.011911845 0.021367408 0.049504884
-0.009140227 0.019479472 0.051835317
-0.009140227 0.021367408 0.050908837
-0.009140227 0.024139024 0.049390543
-0.009140227 0.024707679 0.049063701
-0.009140227 0.026910637 0.04773302
-0.0067407787 0.021367408 0.051835317
-0.006368611 0.02161406 0.051835317
-0.006368611 0.024139024 0.050450571
-0.003596995 0.023533907 0.051835317
-0.003596995 0.024139024 0.051508103
-0.0027729832 0.024139024 0.051835317
-0.006368611 0.026687365 0.049063701
-0.006368611 0.026910637 0.04894904
-0.0060760416 0.026910637 0.049063701
-0.006368611 0.02968226 0.047228839
-0.003596995 0.029087763 0.049063701
-0.003596995 0.02968226 0.048769601
-0.003596995 0.026910637 0.050088767
-0.0029171333 0.02968226 0.049063701
-0.00082537904 0.025528178 0.051835317
-0.00082537904 0.026910637 0.05112936
-0.00082537904 0.02968226 0.049744975
-0.006368611 0.021367408 0.051964056
-0.003596995 0.021367408 0.052992456
-0.00082537904 0.020124417 0.054606929
-0.00082537904 0.021367408 0.054016255
-0.00082537904 0.024139024 0.052581713
-0.014683463 0.030028816 0.037977234
-0.011911845 0.032080676 0.037977234
-0.011911845 0.032453876 0.037173934
-0.011390133 0.032453876 0.037977234
-0.009140227 0.034055386 0.037977234
-0.011911845 0.030291419 0.04074885
-0.0091794319 0.032453876 0.04074885
-0.009140227 0.032483142 0.04074885
-0.009140227 0.030481283 0.043520465
-0.009140227 0.032453876 0.040789198
-0.0071892589 0.035225492 0.037977234
-0.006368611 0.034289706 0.04074885
-0.006368611 0.035225492 0.038933281
-0.0042478666 0.035225492 0.04074885
-0.006368611 0.035620186 0.037977234
-0.003596995 0.036603052 0.037977234
-0.003596995 0.035439234 0.04074885
-0.00082537904 0.037232462 0.037977234
-0.00082537904 0.037997108 0.035890751
-0.00082537904 0.036170121 0.04074885
-0.0064115636 0.032453876 0.043520465
-0.006368611 0.032482583 0.043520465
-0.003596995 0.034088392 0.043520465
-0.003596995 0.035225492 0.041220073
-0.006368611 0.030602921 0.046292081
-0.006368611 0.032453876 0.043564882
-0.0036907196 0.032453876 0.046292081
-0.003596995 0.032508221 0.046292081
-0.00082537904 0.035142589 0.043520465
-0.00082537904 0.035225492 0.043298911
-0.0005440563 0.035225492 0.043520465
-0.00082537904 0.033870567 0.046292081
-0.003596995 0.032453876 0.046375494
-0.00082537904 0.030950975 0.049063701
-0.00082537904 0.032453876 0.048009451
-0.003596995 0.010280941 0.057788797
-0.00082537904 0.010280941 0.058325537
-0.00082537904 0.013052557 0.057739899
0.0074894689 -0.017845128 0.013032686
0.0074894689 -0.014663607 0.010140732
0.013032701 -0.014826605 0.013032686
0.013032701 -0.014663607 0.012846662
0.013274789 -0.014663607 0.013032686
0.0056292154 -0.0091203749 0.007489454
0.0074894689 -0.0081236139 0.007489454
0.0074894689 -0.0035771392 0.0066728611
0.01211898 -0.0035771392 0.007489454
0.0074894689 -0.0091203749 0.0076943338
0.013032701 -0.0091203749 0.0091060773
0.013032701 -0.0035771392 0.0077036135
0.015457153 -0.0091203749 0.01026107
0.013032701 -0.011606282 0.01026107
0.015804321 -0.012651565 0.013032686
0.013032701 -0.011891991 0.010432122
0.015804321 -0.011891991 0.012321524
0.016590677 -0.011891991 0.013032686
0.015804321 -0.0091203749 0.010464437
0.018575937 -0.0096567646 0.013032686
0.018575937 -0.0091203749 0.012619138
0.018989716 -0.0091203749 0.013032686
0.015804321 -0.0087137837 0.01026107
0.013032701 -0.0063487571 0.0082863383
0.015804321 -0.0063487571 0.0093335696
0.017521914 -0.0063487571 0.01026107
0.015804321 -0.0035771392 0.0086015388
0.018575937 -0.0045711063 0.01026107
0.018575937 -0.0035771392 0.0099334847
0.018575937 -0.0063487571 0.010985292
0.019123133 -0.0035771392 0.01026107
0.020891283 -0.0063487571 0.013032686
0.021347549 -0.0056070648 0.013032686
0.021347549 -0.0035771392 0.011908734
0.022552814 -0.0035771392 0.013032686
0.01496518 0.0019660927 0.007489454
0.013032701 -0.0022207014 0.007489454
0.013032701 0.0019660927 0.0070374757
0.018575937 0.0019660927 0.0086893234
0.020547833 -0.00080552325 0.01026107
0.018575937 -0.00080552325 0.0092060287
0.021347549 0.00097295269 0.01026107
0.021347549 0.0019660927 0.010024348
0.021745373 0.0019660927 0.01026107
0.021347549 -0.00080552325 0.010782594
0.023950126 -0.00080552325 0.013032686
0.024119172 -0.00041370094 0.013032686
0.024119172 0.0019660927 0.012103409
0.018575937 0.0047377087 0.0083671343
0.021347549 0.0047377087 0.0095398612
0.022635575 0.0047377087 0.01026107
0.024119172 0.0047377087 0.011353934
0.025025252 0.0019660927 0.013032686
0.02583221 0.0047377087 0.013032686
0.0047178529 -0.020691311 0.015804302
0.0047178529 -0.020206839 0.01497063
0.0062261485 -0.020206839 0.015804302
0.0047178529 -0.021946689 0.018575918
0.0074894689 -0.021014523 0.018575918
0.0074894689 -0.020206839 0.016745005
0.0092924312 -0.020206839 0.018575918
0.0047178529 -0.018830739 0.013032686
0.0074894689 -0.019706191 0.015804302
0.0084344409 -0.017435223 0.013032686
0.010261085 -0.018330446 0.015804302
0.010261085 -0.017435223 0.014303206
0.011876088 -0.017435223 0.015804302
0.010261085 -0.016527377 0.013032686
0.013032701 -0.016747072 0.015804302
0.010261085 -0.019714739 0.018575918
0.013032701 -0.018052207 0.018575918
0.013032701 -0.017435223 0.017177399
0.0035216324 -0.022978457 0.021347536
0.0047178529 -0.022744546 0.021347536
0.0074894689 -0.021926496 0.021347536
0.0047178529 -0.023251226 0.024119154
0.0047178529 -0.022978457 0.022493269
0.0058985911 -0.022978457 0.024119154
0.0074894689 -0.022515908 0.024119154
0.010261085 -0.020682363 0.021347536
0.010261085 -0.020206839 0.019874522
0.011177484 -0.020206839 0.021347536
0.010261085 -0.021342667 0.024119154
0.012374409 -0.020206839 0.024119154
0.013032701 -0.019103223 0.021347536
0.013032701 -0.019814717 0.024119154
0.015804321 -0.014785061 0.015804302
0.015804321 -0.014663607 0.01560544
0.01596041 -0.014663607 0.015804302
0.013994936 -0.017435223 0.018575918
0.015804321 -0.016180603 0.018575918
0.01775483 -0.014663607 0.018575918
0.015461035 -0.017435223 0.021347536
0.015804321 -0.017188268 0.021347536
0.018575937 -0.014925655 0.021347536
0.018575937 -0.014663607 0.020448856
0.015804321 -0.017877087 0.024119154
0.015804321 -0.017435223 0.022205424
0.01639507 -0.017435223 0.024119154
0.018575937 -0.015564954 0.024119154
0.018867627 -0.014663607 0.021347536
0.019508898 -0.014663607 0.024119154
0.0047178529 -0.023609461 0.02689077
0.007146202 -0.022978457 0.02689077
0.0074894689 -0.022871733 0.02689077
0.0047178529 -0.023799527 0.029662386
0.0074894689 -0.022982683 0.029662386
0.0074894689 -0.022978457 0.028619371
0.010261085 -0.021722984 0.02689077
0.013032701 -0.020211555 0.02689077
0.013032701 -0.020206839 0.026847184
0.0075015128 -0.022978457 0.029662386
0.010261085 -0.021798186 0.029662386
0.013032701 -0.02037259 0.029662386
0.0047178529 -0.023612911 0.032434002
0.0066551156 -0.022978457 0.032434002
0.0074894689 -0.022978457 0.029837213
0.0074894689 -0.022641817 0.032434002
0.0047178529 -0.022978457 0.035018802
0.010261085 -0.021381378 0.032434002
0.012854148 -0.020206839 0.032434002
0.013032701 -0.020206839 0.03193159
0.013032701 -0.020122401 0.032434002
0.013040822 -0.020206839 0.02689077
0.013336763 -0.020206839 0.029662386
0.015804321 -0.018331071 0.02689077
0.016978711 -0.017435223 0.02689077
0.018575937 -0.016032387 0.02689077
0.015804321 -0.018625556 0.029662386
0.017418563 -0.017435223 0.029662386
0.018575937 -0.016439974 0.029662386
0.019938979 -0.014663607 0.02689077
0.020291414 -0.014663607 0.029662386
0.015804321 -0.018605223 0.032434002
0.017592754 -0.017435223 0.032434002
0.018575937 -0.016633948 0.032434002
0.020419281 -0.014663607 0.032434002
0.018575937 -0.01230854 0.015804302
0.018575937 -0.011891991 0.015273804
0.018575937 -0.013955811 0.018575918
0.018971462 -0.011891991 0.015804302
0.021246884 -0.0091203749 0.015804302
0.020604078 -0.011891991 0.018575918
0.021347549 -0.011005437 0.018575918
0.021347549 -0.0091203749 0.015954737
0.022831786 -0.0091203749 0.018575918
0.021347549 -0.0089817047 0.015804302
0.021347549 -0.0063487571 0.013525603
0.023191828 -0.0063487571 0.015804302
0.024119172 -0.0048505105 0.015804302
0.024119172 -0.0035771392 0.014844347
0.024119172 -0.0073354077 0.018575918
0.024119172 -0.0063487571 0.017282203
0.021347549 -0.012099175 0.021347536
0.021347549 -0.011891991 0.020634379
0.021524582 -0.011891991 0.021347536
0.023776319 -0.0091203749 0.021347536
0.021347549 -0.012657173 0.024119154
0.021980066 -0.011891991 0.024119154
0.024119172 -0.0092098545 0.024119154
0.024119172 -0.0091203749 0.023449335
0.024119172 -0.0086521972 0.021347536
0.024119172 -0.00080552325 0.013217084
0.021347549 -0.013037734 0.02689077
0.022244986 -0.011891991 0.02689077
0.024119172 -0.0094805676 0.02689077
0.021347549 -0.013365183 0.029662386
0.022452485 -0.011891991 0.029662386
0.024119172 -0.0096690897 0.029662386
0.021347549 -0.013470661 0.032434002
0.022516202 -0.011891991 0.032434002
0.024119172 -0.0096351281 0.032434002
0.024119172 -0.0091203749 0.034639802
0.024820808 -0.0035771392 0.015804302
0.024762314 -0.0063487571 0.018575918
0.02631278 -0.0035771392 0.018575918
0.024186131 -0.0091203749 0.024119154
0.025698159 -0.0063487571 0.021347536
0.026890788 -0.0041328445 0.021347536
0.026890788 -0.0035771392 0.020354351
0.027125802 -0.0035771392 0.021347536
0.026164126 -0.0063487571 0.024119154
0.026890788 -0.0050729588 0.024119154
0.02757683 -0.0035771392 0.024119154
0.026086044 -0.00080552325 0.015804302
0.026890788 0.0015068427 0.015804302
0.026890788 0.0019660927 0.015560528
0.027036685 0.0019660927 0.015804302
0.026890788 -0.0021847412 0.018575918
0.026890788 -0.00080552325 0.017334839
0.027396303 -0.00080552325 0.018575918
0.028390598 0.0019660927 0.018575918
0.026890788 0.0047377087 0.014382752
0.027851004 0.0047377087 0.015804302
0.029250141 0.0047377087 0.018575918
0.029662404 0.0065686963 0.018575918
0.02821454 -0.00080552325 0.021347536
0.029213492 0.0019660927 0.021347536
0.028710697 -0.00080552325 0.024119154
0.029662404 0.0018474236 0.024119154
0.029662404 0.0019660927 0.023857959
0.029701408 0.0019660927 0.024119154
0.029662404 0.0034060366 0.021347536
0.029662404 0.0047377087 0.01983176
0.030031834 0.0047377087 0.021347536
0.030567493 0.0047377087 0.024119154
0.024390023 -0.0091203749 0.02689077
0.024521206 -0.0091203749 0.029662386
0.026346561 -0.0063487571 0.02689077
0.026890788 -0.0053795688 0.02689077
0.027760331 -0.0035771392 0.02689077
0.026410636 -0.0063487571 0.029662386
0.026890788 -0.0054794177 0.029662386
0.027843792 -0.0035771392 0.029662386
0.024467546 -0.0091203749 0.032434002
0.026272144 -0.0063487571 0.032434002
0.026890788 -0.0052703023 0.032434002
0.027775701 -0.0035771392 0.032434002
0.029013488 -0.00080552325 0.02689077
0.029662404 0.00081880391 0.02689077
0.029196616 -0.00080552325 0.029662386
0.029662404 0.00027067959 0.029662386
0.030090425 0.0019660927 0.02689077
0.030348551 0.0019660927 0.029662386
0.031047855 0.0047377087 0.02689077
0.031323541 0.0047377087 0.029662386
0.029107984 -0.00080552325 0.032434002
0.029662404 0.00054642931 0.032434002
0.029662404 0.0019660927 0.034996919
0.030207504 0.0019660927 0.032434002
0.031118695 0.0047377087 0.032434002
0.0047178529 -0.02165287 0.037977234
0.0074894689 -0.020649057 0.037977234
0.0045612752 -0.020206839 0.04074885
0.0047178529 -0.020206839 0.040685143
0.0074894689 -0.020206839 0.039101988
0.0087449215 -0.020206839 0.037977234
0.010261085 -0.020206839 0.036291506
0.0047178529 -0.020174503 0.04074885
0.0074894689 -0.019549685 0.04074885
0.010261085 -0.019637965 0.037977234
0.013032701 -0.018331002 0.037977234
0.010261085 -0.018651435 0.04074885
0.012782857 -0.017435223 0.04074885
0.013032701 -0.017435223 0.04035759
0.013032701 -0.01729133 0.04074885
0.0047178529 -0.018896021 0.043520465
0.0074894689 -0.018396921 0.043520465
0.0047178529 -0.017435223 0.045833111
0.0074894689 -0.017435223 0.045213334
0.0047178529 -0.01698067 0.046292081
0.0074894689 -0.01649056 0.046292081
0.010261085 -0.017524105 0.043520465
0.010484125 -0.017435223 0.043520465
0.013032701 -0.016075414 0.043520465
0.010261085 -0.017435223 0.043707084
0.010261085 -0.015611403 0.046292081
0.011995271 -0.014663607 0.046292081
0.013032701 -0.014663607 0.045500681
0.014666736 -0.017435223 0.037977234
0.015804321 -0.017435223 0.036535002
0.015804321 -0.016749287 0.037977234
0.018437192 -0.014663607 0.037977234
0.018575937 -0.014663607 0.037757441
0.015804321 -0.015382787 0.04074885
0.016685747 -0.014663607 0.04074885
0.014859904 -0.014663607 0.043520465
0.015804321 -0.014663607 0.042163912
0.0047178529 -0.014663607 0.047824729
0.0074894689 -0.014663607 0.047572188
0.010261085 -0.014663607 0.047068361
0.013032701 -0.013780812 0.046292081
0.018575937 -0.014527051 0.037977234
0.018575937 -0.012811137 0.04074885
0.020883564 -0.011891991 0.037977234
0.021347549 -0.011891991 0.037047345
0.021347549 -0.011287706 0.037977234
0.022883747 -0.0091203749 0.037977234
0.019356646 -0.011891991 0.04074885
0.021347549 -0.0092385504 0.04074885
0.021429922 -0.0091203749 0.04074885
0.024119172 -0.0072363075 0.037977234
0.023446243 -0.0063487571 0.04074885
0.024119172 -0.0063487571 0.039352603
0.024119172 -0.0053998381 0.04074885
0.015804321 -0.013793606 0.043520465
0.017547116 -0.011891991 0.043520465
0.018575937 -0.011891991 0.042067129
0.018575937 -0.010575542 0.043520465
0.01465648 -0.011891991 0.046292081
0.015804321 -0.011891991 0.045347147
0.015804321 -0.010227203 0.046292081
0.016469676 -0.0091203749 0.046292081
0.018575937 -0.0091203749 0.04459383
0.0196026 -0.0091203749 0.043520465
0.021347549 -0.0091203749 0.0408976
0.018575683 -0.0063487571 0.046292081
0.018575937 -0.0063487571 0.046291914
0.018575937 -0.0063485038 0.046292081
0.021347549 -0.00685413 0.043520465
0.021778602 -0.0063487571 0.043520465
0.023991469 -0.0035771392 0.043520465
0.024119172 -0.0035771392 0.043269943
0.021347549 -0.0063487571 0.044040795
0.021347549 -0.0039724708 0.046292081
0.021804277 -0.0035771392 0.046292081
0.024119172 -0.0033896267 0.043520465
0.023977611 -0.00080552325 0.046292081
0.024119172 -0.00080552325 0.046104182
0.024119172 -0.00056213886 0.046292081
0.0047178529 -0.012265522 0.049063701
0.005875431 -0.011891991 0.049063701
0.0074894689 -0.011891991 0.048821706
0.0074894689 -0.011253629 0.049063701
0.0047178529 -0.011891991 0.04925479
0.0047178529 -0.0091203749 0.050727576
0.0074894689 -0.0091203749 0.049997818
0.010261085 -0.011891991 0.0483381
0.013032701 -0.011891991 0.047319118
0.010261085 -0.0097470973 0.049063701
0.011162467 -0.0091203749 0.049063701
0.013032701 -0.0091203749 0.048339214
0.010261085 -0.0091203749 0.049315546
0.0047178529 -0.0071174055 0.051835317
0.0062671378 -0.0063487571 0.051835317
0.0074894689 -0.0063487571 0.051471256
0.0074894689 -0.0057168845 0.051835317
0.013032701 -0.0073927473 0.049063701
0.010261085 -0.0063487571 0.050636515
0.013032701 -0.0063487571 0.0495716
0.010261085 -0.0040278248 0.051835317
0.010899868 -0.0035771392 0.051835317
0.013032701 -0.0035771392 0.050998647
0.0047178529 -0.0063487571 0.052295774
0.0034306757 -0.0035771392 0.054606929
0.0047178529 -0.0035771392 0.054215752
0.0074894689 -0.0035771392 0.053156707
0.010261085 -0.0035771392 0.05207115
0.015804321 -0.0091203749 0.046760384
0.014049735 -0.0063487571 0.049063701
0.015804321 -0.0063487571 0.048039131
0.015804321 -0.0045931861 0.049063701
0.016944636 -0.0035771392 0.049063701
0.018575937 -0.0035771392 0.048208702
0.015804321 -0.0035771392 0.049672797
0.021347549 -0.0035771392 0.046629291
0.013032701 -0.0017178841 0.051835317
0.0047178529 -0.0030315556 0.054606929
0.0074894689 -0.0012153126 0.054606929
0.0047178529 -0.00080552325 0.056003913
0.0074894689 -0.00080552325 0.054831266
0.0036406107 0.0019660927 0.057378553
0.0047178529 0.0019660927 0.057096452
0.0074894689 0.0019660927 0.055961736
0.007945817 -0.00080552325 0.054606929
0.010261085 -0.00080552325 0.053450085
0.013032701 -0.00080552325 0.052188899
0.0099943951 0.0019660927 0.054606929
0.010261085 0.0019660927 0.054465026
0.013032701 0.0019660927 0.053114057
0.0047178529 0.0032947175 0.057378553
0.0054097325 0.0047377087 0.057378553
0.0074894689 0.0047377087 0.056547955
0.010261085 0.0024905428 0.054606929
0.011424746 0.0047377087 0.054606929
0.013032701 0.0047377087 0.053895324
0.010261085 0.0047377087 0.055150688
0.018575937 -0.0021698251 0.049063701
0.013882864 -0.00080552325 0.051835317
0.015804321 -0.00080552325 0.050999891
0.018575937 -0.00080552325 0.049697686
0.015804321 0.0018675104 0.051835317
0.015861213 0.0019660927 0.051835317
0.018575937 0.0019660927 0.050602607
0.019951351 -0.00080552325 0.049063701
0.021347549 -0.00080552325 0.048389841
0.021347549 0.00090622157 0.049063701
0.021954808 0.0019660927 0.049063701
0.024119172 0.0019660927 0.047584474
0.021347549 0.0019660927 0.049361311
0.017165195 0.0047377087 0.051835317
0.018575937 0.0047377087 0.051137798
0.022714581 0.0047377087 0.049063701
0.024119172 0.0047377087 0.048081923
0.021347549 0.0047377087 0.049822487
0.015804321 0.0019660927 0.05186142
0.015804321 0.0047377087 0.052553602
0.024681311 -0.0063487571 0.037977234
0.026255127 -0.0035771392 0.037977234
0.026890788 -0.0035771392 0.036030132
0.025257867 -0.0035771392 0.04074885
0.026890788 -0.0022274666 0.037977234
0.027524713 -0.00080552325 0.037977234
0.028761607 0.0019660927 0.037977234
0.02666318 -0.00080552325 0.04074885
0.026890788 -0.00080552325 0.040030763
0.026890788 -0.00029504672 0.04074885
0.027845401 0.0019660927 0.04074885
0.029662404 0.0045188852 0.037977234
0.028746348 0.0047377087 0.04074885
0.029662404 0.0047377087 0.038173873
0.029722247 0.0047377087 0.037977234
0.025584694 -0.00080552325 0.043520465
0.026743058 0.0019660927 0.043520465
0.026890788 0.0019660927 0.043187987
0.02523813 0.0019660927 0.046292081
0.026890788 0.0023885854 0.043520465
0.027497243 0.0047377087 0.043520465
0.025855433 0.0047377087 0.046292081
0.026890788 0.0047377087 0.044663452
0.0047178529 0.0047377087 0.057591587
0.013032701 0.018595789 0.0076670647
0.015458036 0.013052557 0.007489454
0.013032701 0.013052557 0.006956229
0.013032701 0.017560583 0.007489454
0.018575937 0.013052557 0.0082628261
0.018575937 0.010280941 0.0081350803
0.021347549 0.010280941 0.0091749672
0.023214746 0.010280941 0.01026107
0.021347549 0.013052557 0.0092780367
0.023100507 0.013052557 0.01026107
0.024119172 0.010280941 0.010888956
0.024119172 0.013052557 0.010949282
0.018575937 0.018595789 0.0089703705
0.024119172 0.018595789 0.011768613
0.0074894689 0.021122158 0.007489454
0.0074894689 0.018595789 0.0069541521
0.011998158 0.018595789 0.007489454
0.0074894689 0.024139024 0.0082321297
0.013032701 0.024139024 0.0089730695
0.0074894689 0.02968226 0.010278683
0.013032701 0.02968226 0.011301253
0.018575937 0.024139024 0.010473352
0.023113605 0.024139024 0.013032686
0.024119172 0.02238309 0.013032686
0.017484095 0.02968226 0.013032686
0.018575937 0.028912377 0.013032686
0.02654871 0.013052557 0.013032686
0.025569681 0.018595789 0.013032686
0.0074894689 0.033783864 0.013032686
0.013032701 0.0320949 0.013032686
0.024119172 0.024139024 0.013956003
0.018575937 0.02968226 0.013685614
0.020877067 0.026910637 0.013032686
0.021347549 0.026414264 0.013032686
0.021347549 0.026910637 0.013386576
0.023790706 0.026910637 0.015804302
0.024119172 0.02649397 0.015804302
0.021038074 0.02968226 0.015804302
0.021347549 0.029417191 0.015804302
0.024119172 0.026910637 0.016228357
0.021347549 0.02968226 0.016148169
0.023156669 0.02968226 0.018575918
0.024119172 0.028730731 0.018575918
0.024119172 0.02968226 0.020368226
0.026609588 0.010280941 0.013032686
0.026890788 0.010280941 0.013357028
0.028672528 0.010280941 0.015804302
0.026890788 0.013052557 0.013428828
0.028607089 0.013052557 0.015804302
0.029662404 0.010280941 0.017578984
0.029662404 0.013052557 0.017683005
0.030099113 0.010280941 0.018575918
0.030068357 0.013052557 0.018575918
0.026201215 0.015824173 0.013032686
0.026890788 0.015824173 0.013841866
0.028253246 0.015824173 0.015804302
0.026890788 0.018595789 0.014640318
0.027648669 0.018595789 0.015804302
0.029662404 0.015824173 0.018374033
0.029173765 0.018595789 0.018575918
0.029662404 0.016365573 0.018575918
0.029754307 0.015824173 0.018575918
0.031012174 0.010280941 0.021347536
0.031034674 0.013052557 0.021347536
0.031631645 0.010280941 0.024119154
0.031644482 0.013052557 0.024119154
0.029662404 0.018595789 0.01972351
0.030783478 0.015824173 0.021347536
0.030224945 0.018595789 0.021347536
0.031354953 0.015824173 0.024119154
0.030755598 0.018595789 0.024119154
0.024590041 0.021367408 0.013032686
0.026821312 0.021367408 0.015804302
0.026890788 0.021157287 0.015804302
0.025642399 0.024139024 0.015804302
0.026890788 0.021367408 0.015919356
0.028317418 0.021367408 0.018575918
0.026890788 0.024139024 0.017980274
0.027168248 0.024139024 0.018575918
0.025603238 0.026910637 0.018575918
0.026890788 0.024723884 0.018575918
0.029407855 0.021367408 0.021347536
0.029662404 0.020575494 0.021347536
0.028258834 0.024139024 0.021347536
0.029662404 0.021367408 0.022317521
0.028908912 0.024139024 0.024119154
0.029662404 0.022150457 0.024119154
0.029918138 0.021367408 0.024119154
0.02672993 0.026910637 0.021347536
0.026890788 0.026648182 0.021347536
0.024538416 0.02968226 0.021347536
0.026890788 0.026910637 0.021892477
0.02739678 0.026910637 0.024119154
0.025341343 0.02968226 0.024119154
0.026890788 0.027688336 0.024119154
0.03210577 0.010280941 0.02689077
0.03206284 0.013052557 0.02689077
0.032358233 0.010280941 0.029662386
0.032317784 0.013052557 0.029662386
0.031640116 0.015824173 0.02689077
0.03091443 0.018595789 0.02689077
0.031869937 0.015824173 0.029662386
0.031105932 0.018595789 0.029662386
0.032176759 0.010280941 0.032434002
0.03228901 0.013052557 0.032434002
0.031986561 0.015824173 0.032434002
0.031294364 0.018595789 0.032434002
0.029076289 0.024139024 0.02689077
0.029662404 0.022428263 0.02689077
0.028989825 0.024139024 0.029662386
0.029662404 0.022469155 0.029662386
0.030009072 0.021367408 0.02689077
0.030087534 0.021367408 0.029662386
0.027682479 0.026910637 0.02689077
0.025619771 0.02968226 0.02689077
0.026890788 0.028097805 0.02689077
0.027535986 0.026910637 0.029662386
0.025499757 0.02968226 0.029662386
0.026890788 0.027902793 0.029662386
0.028875384 0.024139024 0.032434002
0.029662404 0.022591457 0.032434002
0.03021897 0.021367408 0.032434002
0.027213689 0.026910637 0.032434002
0.025258418 0.02968226 0.032434002
0.026890788 0.027402055 0.032434002
0.0047178529 0.034091007 0.013032686
0.0047178529 0.035225492 0.014273072
0.0074894689 0.035225492 0.014633123
0.012156308 0.032453876 0.013032686
0.013032701 0.032453876 0.013372352
0.010261085 0.033118751 0.013032686
0.010261085 0.035225492 0.015499327
0.010920484 0.035225492 0.015804302
0.013032701 0.034450326 0.015804302
0.013032701 0.035225492 0.017119981
0.0047178529 0.036268119 0.015804302
0.0074894689 0.03601012 0.015804302
0.0047178529 0.037532907 0.018575918
0.0074894689 0.037337217 0.018575918
0.010261085 0.035417315 0.015804302
0.010261085 0.03682692 0.018575918
0.013032701 0.035942059 0.018575918
0.0047178529 0.037997108 0.020091515
0.0074894689 0.037997108 0.02063317
0.0047178529 0.038329478 0.021347536
0.0074894689 0.038195867 0.021347536
0.0047178529 0.038996007 0.024119154
0.0074894689 0.038906198 0.024119154
0.0089889057 0.037997108 0.021347536
0.010261085 0.037764426 0.021347536
0.013032701 0.037013154 0.021347536
0.010261085 0.037997108 0.022226423
0.012170818 0.037997108 0.024119154
0.013032701 0.037758362 0.024119154
0.010261085 0.038448554 0.024119154
0.015804321 0.030721027 0.013032686
0.015804321 0.032453876 0.014891006
0.016995318 0.032453876 0.015804302
0.018575937 0.031507727 0.015804302
0.015804321 0.033102918 0.015804302
0.018575937 0.032453876 0.017375581
0.014713489 0.035225492 0.018575918
0.015804321 0.034692902 0.018575918
0.018575937 0.033062305 0.018575918
0.019531239 0.032453876 0.018575918
0.021347549 0.031187389 0.018575918
0.015804321 0.035225492 0.01979004
0.016967822 0.035225492 0.021347536
0.018575937 0.034264106 0.021347536
0.018508151 0.035225492 0.024119154
0.018575937 0.035184193 0.024119154
0.021223407 0.032453876 0.021347536
0.021347549 0.032367449 0.021347536
0.024119172 0.030100014 0.021347536
0.021347549 0.032453876 0.021590706
0.022401761 0.032453876 0.024119154
0.024119172 0.030963842 0.024119154
0.021347549 0.033249598 0.024119154
0.015804321 0.035827693 0.021347536
0.015804321 0.036693361 0.024119154
0.0047178529 0.039496522 0.02689077
0.0074894689 0.039442632 0.02689077
0.0047178529 0.039715853 0.029662386
0.0074894689 0.039679866 0.029662386
0.013032701 0.037997108 0.025330275
0.010261085 0.038988832 0.02689077
0.013032701 0.038237717 0.02689077
0.010261085 0.039266173 0.029662386
0.013032701 0.038487185 0.029662386
0.0047178529 0.039477561 0.032434002
0.0074894689 0.03947198 0.032434002
0.010261085 0.039121244 0.032434002
0.013032701 0.038379658 0.032434002
0.013032701 0.037997108 0.034438245
0.018575937 0.035225492 0.024270482
0.0229466 0.032453876 0.02689077
0.024119172 0.031318802 0.02689077
0.019459803 0.035225492 0.02689077
0.021347549 0.0338124 0.02689077
0.022997435 0.032453876 0.029662386
0.024119172 0.031278547 0.029662386
0.019811552 0.035225492 0.029662386
0.021347549 0.033977415 0.029662386
0.013801921 0.037997108 0.02689077
0.015804321 0.03725319 0.02689077
0.018575937 0.035789598 0.02689077
0.014490105 0.037997108 0.029662386
0.015804321 0.037510734 0.029662386
0.018575937 0.036070768 0.029662386
0.022946242 0.032453876 0.032434002
0.024119172 0.031161766 0.032434002
0.019736066 0.035225492 0.032434002
0.021347549 0.033938888 0.032434002
0.014180679 0.037997108 0.032434002
0.015804321 0.037397187 0.032434002
0.018575937 0.035994988 0.032434002
0.023460258 0.02968226 0.04074885
0.024119172 0.028979506 0.04074885
0.024119172 0.02968226 0.039444759
0.023149949 0.024139024 0.046292081
0.024119172 0.022142045 0.046292081
0.024119172 0.024139024 0.045545939
0.017321553 0.02968226 0.046292081
0.018575937 0.028826516 0.046292081
0.018575937 0.02968226 0.045676321
0.021636453 0.02968226 0.043520465
0.024119172 0.027052101 0.043520465
0.020731632 0.026910637 0.046292081
0.021347549 0.02632146 0.046292081
0.021347549 0.026910637 0.045978364
0.024119172 0.026910637 0.043675583
0.021347549 0.02968226 0.043842968
0.0073881559 0.010280941 0.057378553
0.0074894689 0.010280941 0.057330236
0.0067518055 0.013052557 0.057378553
0.0074894689 0.013052557 0.057079293
0.013029601 0.010280941 0.054606929
0.013032701 0.010280941 0.054605551
0.012892559 0.013052557 0.054606929
0.013032701 0.013052557 0.054555237
0.010261085 0.010280941 0.055923566
0.010261085 0.013052557 0.055724941
0.0047178529 0.014520157 0.057378553
0.0047178529 0.015824173 0.056854017
0.0074894689 0.015824173 0.056307152
0.0047178529 0.018595789 0.055683017
0.0074894689 0.018595789 0.055406898
0.013032701 0.014925566 0.054606929
0.011572663 0.018595789 0.054606929
0.013032701 0.016571641 0.054606929
0.013032701 0.018595789 0.054189064
0.010261085 0.015824173 0.055447705
0.013032701 0.015824173 0.054627806
0.010261085 0.018595789 0.054906443
0.018272948 0.010280941 0.051835317
0.018575937 0.010280941 0.051682949
0.018575937 0.011727363 0.051835317
0.023810733 0.010280941 0.049063701
0.024119172 0.010280941 0.048828203
0.023901533 0.013052557 0.049063701
0.024119172 0.013052557 0.048898034
0.021347549 0.010280941 0.050461836
0.018823564 0.013052557 0.051835317
0.021347549 0.013052557 0.0506556
0.017951347 0.018595789 0.051835317
0.018575937 0.017040499 0.051835317
0.018575937 0.018595789 0.051471546
0.023226682 0.015824173 0.049063701
0.024119172 0.015824173 0.048398048
0.022102635 0.018595789 0.049063701
0.024119172 0.018595789 0.047497127
0.018839654 0.015824173 0.051835317
0.021347549 0.015824173 0.050368119
0.021347549 0.018595789 0.049619224
0.015804321 0.010280941 0.053198297
0.015804321 0.013052557 0.053337865
0.018575937 0.013052557 0.051950552
0.013100501 0.015824173 0.054606929
0.015804321 0.015824173 0.053479753
0.018575937 0.015824173 0.051976766
0.015804321 0.018595789 0.053014334
0.011858001 0.024139024 0.051835317
0.013032701 0.023508973 0.051835317
0.013032701 0.024139024 0.051503852
0.0047178529 0.026888598 0.051835317
0.0047178529 0.026910637 0.051824097
0.0074894689 0.025961239 0.051835317
0.0074894689 0.026910637 0.051382639
0.0047178529 0.02968226 0.050468799
0.0074894689 0.02968226 0.050175264
0.010999221 0.02968226 0.049063701
0.013032701 0.028355535 0.049063701
0.013032701 0.02968226 0.04823513
0.010261085 0.024851903 0.051835317
0.010261085 0.026910637 0.050768815
0.013032701 0.026910637 0.049940836
0.010261085 0.02968226 0.049351014
0.0047178529 0.021277465 0.054606929
0.0047178529 0.021367408 0.054569624
0.0074894689 0.020623945 0.054606929
0.0074894689 0.021367408 0.054255597
0.0047178529 0.024139024 0.053283717
0.0074894689 0.024139024 0.05279129
0.010261085 0.019461229 0.054606929
0.010261085 0.021367408 0.05372785
0.013032701 0.021367408 0.052952897
0.010261085 0.024139024 0.052214138
0.018324386 0.024139024 0.049063701
0.018575937 0.023846801 0.049063701
0.018575937 0.024139024 0.048907232
0.015838645 0.021367408 0.051835317
0.018575937 0.021367408 0.050355326
0.015804321 0.021400526 0.051835317
0.015804321 0.024139024 0.050437476
0.020570625 0.021367408 0.049063701
0.021347549 0.020125791 0.049063701
0.021347549 0.021367408 0.048565026
0.024119172 0.021367408 0.046535313
0.021347549 0.024139024 0.047341887
0.015317973 0.026910637 0.049063701
0.015804321 0.026557129 0.049063701
0.015804321 0.026910637 0.048855837
0.018575937 0.026910637 0.047444321
0.015804321 0.02968226 0.047025133
0.015804321 0.021367408 0.051851165
0.029662404 0.0089839399 0.04074885
0.03092112 0.010280941 0.037977234
0.031307053 0.013052557 0.037977234
0.029974628 0.010280941 0.04074885
0.03044631 0.013052557 0.04074885
0.029225867 0.018595789 0.04074885
0.029662404 0.017372962 0.04074885
0.029662404 0.018595789 0.039480358
0.031058665 0.015824173 0.037977234
0.030209597 0.018595789 0.037977234
0.030152727 0.015824173 0.04074885
0.028457154 0.010280941 0.043520465
0.029662404 0.010280941 0.041424882
0.029025909 0.013052557 0.043520465
0.029662404 0.013052557 0.042477626
0.026516031 0.010280941 0.046292081
0.026890788 0.010280941 0.045767438
0.026791956 0.013052557 0.046292081
0.026890788 0.013052557 0.046177305
0.028867144 0.015824173 0.043520465
0.029662404 0.015824173 0.042014144
0.027883004 0.018595789 0.043520465
0.026533697 0.015824173 0.046292081
0.026890788 0.015824173 0.045937814
0.025482621 0.018595789 0.046292081
0.026890788 0.018595789 0.044828925
0.029271711 0.021367408 0.037977234
0.029662404 0.020171784 0.037977234
0.029662404 0.021367408 0.036727905
0.028187964 0.024139024 0.037977234
0.028305028 0.021367408 0.04074885
0.02731226 0.024139024 0.04074885
0.026622701 0.026910637 0.037977234
0.026890788 0.026487861 0.037977234
0.026890788 0.026910637 0.036295749
0.024650548 0.02968226 0.037977234
0.025776405 0.026910637 0.04074885
0.026890788 0.025026929 0.04074885
0.026871685 0.021367408 0.043520465
0.026890788 0.021296129 0.043520465
0.026890788 0.021367408 0.043493066
0.025937151 0.024139024 0.043520465
0.026890788 0.024139024 0.041801319
0.024390075 0.021367408 0.046292081
0.024233084 0.026910637 0.043520465
0.0042859986 0.037997108 0.037977234
0.0047178529 0.038055722 0.037977234
0.0074894689 0.038230542 0.037977234
0.0047178529 0.037218537 0.04074885
0.0047178529 0.037997108 0.038192291
0.0074894689 0.037330929 0.04074885
0.0074894689 0.037997108 0.038791578
0.0094375983 0.037997108 0.037977234
0.010261085 0.037768569 0.037977234
0.010261085 0.037997108 0.037244644
0.013032701 0.036825437 0.037977234
0.010261085 0.036793653 0.04074885
0.013032701 0.03574634 0.04074885
0.0047178529 0.034837242 0.046292081
0.0047178529 0.035225492 0.04555824
0.0074894689 0.034735557 0.046292081
0.0074894689 0.035225492 0.045424875
0.011619829 0.035225492 0.043520465
0.013032701 0.034543481 0.043520465
0.013032701 0.035225492 0.042008482
0.012951497 0.032453876 0.046292081
0.013032701 0.032388341 0.046292081
0.013032701 0.032453876 0.046237506
0.010261085 0.0341237 0.046292081
0.010261085 0.035225492 0.044505198
0.0047178529 0.036158141 0.043520465
0.0074894689 0.036160801 0.043520465
0.010261085 0.035681214 0.043520465
0.016988229 0.035225492 0.037977234
