# .PCD v0.7 - Point Cloud Data file format
VERSION 0.7
FIELDS x y z
SIZE 4 4 4
TYPE F F F
COUNT 1 1 1
WIDTH 189
HEIGHT 1
VIEWPOINT 0 0 0 1 0 0 0
POINTS 189
DATA ascii
-0.021339558 -0.030151119 0.0089768805
-0.016481452 -0.030462714 0.0089768805
-0.032947663 -0.023096019 0.0078096227
-0.026235441 -0.026060436 0.0070838137
-0.013782504 -0.026805229 0.0068896282
-0.0047858353 -0.026395131 0.0088876579
0.0012441005 -0.02199553 0.0090331882
-0.040742911 -0.013975418 0.0090175532
-0.035138108 -0.015841627 0.0055140727
-0.026142294 -0.015679361 0.0027300341
-0.015049506 -0.015036974 0.0027781518
-0.0051458701 -0.015607305 0.0043636542
0.0051804916 -0.016210148 0.0083325254
0.010771635 -0.01205052 0.0091405306
-0.0421547 -0.0058910921 0.0089768805
-0.034294508 -0.0058910921 0.0040984275
-0.026873419 -0.0058910921 0.0021876646
0.0045703426 -0.0058910921 0.0050044898
0.014354832 -0.0065435255 0.0091125052
-0.040884525 0.0019495426 0.0093089417
-0.036053743 0.0048742867 0.0072188796
-0.024950232 0.0027733082 0.0025821687
-0.011623345 0.00058638304 0.0018930901
0.0045703426 0.0038251206 0.0044044424
0.016361434 0.0038251206 0.0089161946
-0.033206325 0.014368816 0.0086001717
-0.024578296 0.013541333 0.0042847563
-0.014862083 0.013541333 0.003166833
-0.0051458701 0.013541333 0.0034219455
0.0045703426 0.013541333 0.0052884752
0.013394779 0.01403507 0.0090307258
-0.025515791 0.023317767 0.0087694544
-0.014617599 0.026655044 0.0077195913
-0.0054062204 0.027629854 0.0081888279
0.0043732054 0.023060922 0.0086033363
-0.03177052 -0.031740591 0.017183928
-0.024459686 -0.033439159 0.015051544
-0.014862085 -0.034084219 0.014629274
-0.0056351353 -0.032258641 0.015830213
-0.041558478 -0.023244694 0.017352261
-0.035817124 -0.026808685 0.013940983
-0.0028689587 -0.028460862 0.011897953
0.0043933773 -0.025132963 0.015428258
0.011047818 -0.020601178 0.018693093
-0.04428127 -0.015591663 0.015031536
0.0080194874 -0.019058585 0.012020103
0.014170396 -0.015091448 0.015323396
-0.046166055 -0.0055576744 0.015145027
0.017936841 -0.0065019121 0.012402156
0.021134449 -0.0057727224 0.017075146
-0.044001177 0.0041952194 0.015149964
0.02166236 0.0038251206 0.01483922
-0.041210338 0.011897909 0.017078821
-0.037222512 0.01512323 0.01390305
0.017248536 0.015514237 0.013634024
0.021031056 0.0122695 0.016715204
-0.032793894 0.022857564 0.015605185
-0.025772836 0.028379017 0.014272125
-0.01810082 0.029735021 0.010297921
-0.0019071326 0.029735021 0.01017756
0.0064654741 0.027628478 0.014007756
0.013284639 0.022667564 0.016019614
-0.022580987 0.03222112 0.01741646
-0.014630172 0.034001611 0.015215982
-0.0053901845 0.034407984 0.015296359
0.0022996627 0.032327358 0.016356234
-0.033742674 -0.032215167 0.025385622
-0.025744364 -0.035752617 0.02497213
-0.014862084 -0.036634866 0.025170567
-0.0053863688 -0.0343557 0.024622684
0.0010948748 -0.031467769 0.025818316
-0.042984657 -0.024144139 0.024961222
-0.038349718 -0.02890466 0.02452282
0.0062479768 -0.027000271 0.024943879
0.010998269 -0.022034701 0.025241461
-0.04736802 -0.01583216 0.024947351
0.016171927 -0.016562765 0.025048686
0.02057429 -0.011112334 0.025980253
-0.04881059 -0.0058910921 0.025170567
0.023221178 -0.0047773402 0.025163498
-0.046984132 0.0036069052 0.025170568
0.024148008 0.0045275441 0.024492314
-0.042584218 0.01375621 0.024870412
0.018710148 0.018256478 0.028409306
0.021614674 0.01378245 0.024876138
-0.034776866 0.024539737 0.025096856
-0.029418461 0.029735021 0.021931831
0.0095065041 0.029735021 0.02517057
0.014478104 0.024046911 0.026111852
-0.024467092 0.033480905 0.025176639
-0.015564209 0.036820762 0.0244212
-0.0039000129 0.036892958 0.024861639
0.0048145573 0.033308603 0.024840998
-0.033261109 -0.031642023 0.035271965
-0.025486048 -0.035003427 0.035725616
-0.014923262 -0.035387903 0.037705559
-0.0051559554 -0.033656426 0.035356581
0.001128383 -0.031357955 0.032727625
-0.042712882 -0.023241384 0.035638664
-0.037876267 -0.027999841 0.036944307
0.0050948709 -0.026162289 0.037119333
0.010983296 -0.021701809 0.03397416
-0.046131033 -0.016123587 0.036437809
0.016001124 -0.015773349 0.0352237
0.020764031 -0.010902226 0.031648044
-0.047429852 -0.005494263 0.037325736
0.022240378 -0.0057240846 0.035141096
-0.045587856 0.0042465366 0.037095562
0.023853505 0.0044153566 0.034699779
-0.042211276 0.013130657 0.036170691
-0.038956039 0.016788479 0.038988117
0.01634755 0.017452022 0.03655865
0.021567211 0.012310728 0.035103392
-0.034455162 0.023830399 0.035068948
-0.0285428 0.029754544 0.036226261
0.0086195497 0.02806616 0.036814261
0.012799226 0.023284437 0.034144517
-0.023601886 0.033411119 0.036058135
-0.015155851 0.03602105 0.037571121
-0.0034599407 0.036193285 0.036800206
0.0042964392 0.033014666 0.035479903
-0.031538218 -0.030227389 0.041121412
-0.025075108 -0.031669695 0.043873005
-0.015115621 -0.032208558 0.044690359
-0.0062892665 -0.031268284 0.043136749
-0.040785473 -0.021195933 0.041745178
-0.035106566 -0.024716396 0.045146216
-0.0265339 -0.027702669 0.048325174
-0.013900246 -0.027680513 0.04904715
-0.0034012182 -0.026550749 0.047004685
0.0037904468 -0.022968628 0.044231787
-0.042729989 -0.014505924 0.044124883
-0.038429145 -0.016353389 0.04864385
0.0073207538 -0.01645584 0.047328588
0.012779912 -0.013586836 0.04388107
-0.043570988 -0.0049961917 0.0448591
-0.039323129 -0.0054494464 0.049572811
0.0095270006 -0.0093797855 0.049538314
0.015495499 -0.0053786482 0.045940187
0.02055186 -0.0023728232 0.041718885
-0.042634733 0.0048186607 0.044677008
-0.038871542 0.0063439556 0.049043663
0.015961401 0.0050513353 0.046755258
0.020678613 0.0037694799 0.042095907
-0.041024521 0.011540389 0.042219952
-0.036003944 0.014938153 0.046049912
-0.029436402 0.0199847 0.0494611
0.0079563241 0.015520249 0.0481681
0.013791423 0.013680089 0.043949131
-0.032315183 0.021983979 0.044098876
-0.026119156 0.026161963 0.046222862
-0.015974829 0.028762491 0.049001388
-0.0029109255 0.028239837 0.048770774
0.0052560978 0.024667671 0.045542497
0.010809544 0.020018809 0.040952977
-0.022461914 0.031464048 0.042502686
-0.014570601 0.032768317 0.044511773
-0.0044909371 0.032863371 0.044140961
0.0020652283 0.031434834 0.042102527
-0.032071594 -0.021480748 0.050952222
-0.025044199 -0.023172988 0.052011538
-0.015379963 -0.023279985 0.051934153
-0.0048744939 -0.021862647 0.051094651
-0.034056745 -0.014658474 0.052544087
-0.025477938 -0.015162362 0.055274047
-0.014810402 -0.015052991 0.055047333
-0.0041824114 -0.014961226 0.053832863
0.0033697679 -0.01358844 0.051771317
-0.034598697 -0.0048379507 0.053230848
-0.025483379 -0.0050196163 0.057496782
-0.014883376 -0.0051436019 0.058506623
-0.0042809215 -0.0049890243 0.056721084
0.0052870577 -0.0051664812 0.052820221
0.010834372 -0.0022475123 0.050550375
-0.034485549 0.004406909 0.052842084
-0.025467288 0.0049506864 0.057302803
-0.014659481 0.0046590231 0.059135951
-0.0045570158 0.0047644316 0.057576161
0.0051239794 0.0049285255 0.053530376
0.010791289 0.0024756468 0.050712079
-0.032024641 0.012485282 0.051443253
-0.025508972 0.014653953 0.053833734
-0.014878159 0.014675755 0.056220952
-0.0042239316 0.014767332 0.055002641
0.0033642026 0.01353781 0.052248944
-0.023658931 0.021610739 0.051383011
-0.014538479 0.023753207 0.052090786
-0.0051401029 0.023255924 0.051616095
0.001331605 0.020018809 0.050043505
