# .PCD v0.7 - Point Cloud Data file format
VERSION 0.7
FIELDS x y z
SIZE 4 4 4
TYPE F F F
COUNT 1 1 1
WIDTH 239
HEIGHT 1
VIEWPOINT 0 0 0 1 0 0 0
POINTS 239
DATA ascii
-0.0034458875 -0.0051068477 0.0094746593
0.0058088563 -0.0062636901 0.0095127122
0.01274991 -0.0027931631 0.0096942764
-0.0046027303 0.0041478947 0.0092079993
0.0058088563 0.0041478947 0.0091357715
0.01274991 0.0041478947 0.0096875345
-0.0046027303 0.011088952 0.0095514059
0.0058088563 0.011088952 0.0096081262
-0.014318046 -0.021971434 0.016616875
-0.0049276659 -0.023322469 0.015452321
0.0057872427 -0.022913443 0.015326709
0.014741693 -0.021372844 0.017182613
-0.022997856 -0.014196358 0.015901323
-0.015849633 -0.016521547 0.013572288
-0.0037350981 -0.015286452 0.011225848
0.0058088563 -0.015224419 0.011252983
0.016709616 -0.01539175 0.013709273
0.022840938 -0.014764237 0.017432643
-0.031395204 -0.0027931631 0.018459322
-0.025870843 -0.0064469967 0.014701437
-0.015471916 -0.0062636901 0.010852143
-0.0075811259 -0.0094929729 0.010115307
0.0091150478 -0.0097342171 0.010080503
0.016564725 -0.0068881474 0.010991735
0.025077704 -0.0064862054 0.015128819
0.030102551 -0.0027931631 0.019957958
-0.031624295 0.0041478947 0.018059378
-0.025625272 0.0045925933 0.013457892
-0.014670769 0.0041478947 0.010143103
0.017403828 0.0052618706 0.010732126
0.025941452 0.0041478947 0.014436632
0.030102551 0.0041478947 0.018930627
-0.025536561 0.014932421 0.015346506
-0.01502016 0.014559479 0.011244796
-0.0046027303 0.016983539 0.01022903
0.0058088563 0.016745914 0.010252697
0.016820766 0.015268316 0.012137723
0.024562804 0.014145576 0.015598343
-0.022708841 0.023062183 0.01713589
-0.015572367 0.025287187 0.014905002
-0.0044957977 0.027282009 0.01320661
0.0053748768 0.027022569 0.013483159
0.015420386 0.02470218 0.015635708
0.02227436 0.021500539 0.018037368
-0.011543784 0.031269792 0.017844414
-0.0050277645 0.032100961 0.016807141
0.0056230281 0.031689927 0.017375557
-0.0028024048 -0.030533491 0.027562127
0.0018342038 -0.030520488 0.027621098
-0.023076681 -0.021287015 0.02562956
-0.015279604 -0.025739953 0.023998875
-0.0056335195 -0.028568795 0.02266117
0.0066880691 -0.028204793 0.023015177
0.016125754 -0.024687409 0.024300564
0.022454171 -0.020204306 0.025149673
-0.031331386 -0.012596861 0.026276302
-0.027150942 -0.01611485 0.022986505
0.025975505 -0.015364924 0.023826675
0.030102551 -0.011027534 0.027433144
-0.0328345 -0.0066244709 0.023537971
0.029098829 -0.0085773747 0.021648932
0.03117756 -0.0056442879 0.024751579
-0.034612615 0.0038323922 0.025027864
0.032581374 0.0041478947 0.024991367
-0.03234788 0.013851207 0.023994286
-0.029063795 0.018310823 0.020492088
0.027602185 0.017424405 0.021098226
0.03058305 0.014050735 0.02449061
-0.025153955 0.025149951 0.024156785
-0.018484842 0.029625054 0.020492088
0.018789016 0.028339881 0.023057031
0.024359459 0.023769883 0.024496721
-0.014917932 0.033016164 0.024621928
-0.0048618875 0.035548713 0.023726135
0.005806054 0.034937795 0.024631936
0.013975548 0.031880375 0.02459885
-0.0057537029 -0.031027375 0.034183931
0.0059483866 -0.030818392 0.034349106
-0.023531552 -0.022833098 0.036687888
-0.015900305 -0.027606942 0.03580324
0.0092793852 -0.029918324 0.030903673
0.016071361 -0.026699223 0.0343742
0.022898143 -0.021561453 0.034894779
-0.031742431 -0.013348725 0.037071612
-0.028623555 -0.017644849 0.036687888
0.027587164 -0.016385639 0.036890335
0.03035067 -0.012247178 0.036687888
-0.035345856 -0.0056114946 0.036502969
0.033084981 -0.0057494282 0.036784485
-0.036426958 0.0051132301 0.036119804
0.03497785 0.0048502013 0.036869809
-0.033925749 0.015578546 0.036835831
0.032869548 0.015135041 0.03625663
-0.030680936 0.022225469 0.037194006
-0.026599627 0.027023837 0.036316939
0.025316145 0.026212709 0.034351826
0.030121943 0.021419283 0.037701942
-0.021793069 0.03133646 0.036687884
-0.015478207 0.034880891 0.036277384
-0.005181151 0.037915472 0.036687884
0.005578503 0.037466351 0.036890332
0.015670655 0.033872891 0.036476776
0.021431085 0.030180907 0.038793709
-0.0052624312 -0.03087005 0.045215718
0.0036659632 -0.030848626 0.044632155
-0.022754103 -0.022057911 0.045033179
-0.015331072 -0.026855769 0.045731213
-0.0080613233 -0.029418243 0.049206138
0.0069849109 -0.029062508 0.047700964
0.0154938 -0.025719339 0.0458248
0.022008695 -0.021084884 0.044596076
-0.031266186 -0.012521938 0.045071229
-0.027571591 -0.016992139 0.046395373
0.026373511 -0.01568721 0.046110675
0.030245207 -0.011634489 0.043754108
-0.034377981 -0.0055108527 0.045771278
0.029585291 -0.0091557968 0.049413156
0.032156587 -0.0052442965 0.04559426
-0.03575483 0.0052753463 0.045836844
0.033559158 0.0048757992 0.045993377
-0.033059377 0.015355356 0.045658264
-0.02945233 0.019765269 0.049991578
0.028867858 0.018853258 0.048488226
0.03191467 0.01482985 0.045313291
-0.030663084 0.021367436 0.043542489
-0.025733331 0.025691865 0.046157107
-0.018484842 0.029972728 0.049991578
0.019358769 0.028907984 0.04905235
0.025023313 0.025016077 0.045505069
0.030102551 0.020821031 0.042182889
-0.021034945 0.030786879 0.043528672
-0.015008784 0.033448562 0.045748092
-0.0057121371 0.03666272 0.045824446
0.0052388161 0.036652453 0.045713037
0.014963736 0.032937642 0.045473993
0.02057806 0.030176859 0.043050524
-0.020983471 -0.020632433 0.052460186
-0.014797739 -0.02329905 0.055021413
-0.0054365699 -0.026670026 0.055478033
0.0050793244 -0.025654694 0.055396743
0.014096684 -0.022279032 0.054508939
-0.02466939 -0.015045111 0.055238813
-0.017892875 -0.018817483 0.058587816
0.018106397 -0.016869366 0.056861002
0.023234934 -0.013751545 0.05392728
-0.031524558 -0.0045200493 0.053673357
-0.028397953 -0.0068082865 0.057313964
0.02638004 -0.0059861154 0.055821974
0.030214597 -0.0034247646 0.05181703
-0.032151807 0.004923658 0.054856833
-0.029245539 0.0087752659 0.058813795
0.027970271 0.0050013964 0.057426043
0.030830784 0.0050179306 0.052587762
-0.031179771 0.013134172 0.053043641
-0.027646706 0.016539155 0.056403648
0.025934622 0.015902514 0.055531818
0.030210914 0.012261824 0.05199302
-0.023069154 0.023829564 0.054759033
-0.01605235 0.027601141 0.056501318
-0.0089408904 0.029520378 0.058667898
0.016829763 0.026438149 0.056250993
0.02238806 0.023084218 0.053460632
-0.013473663 0.030879268 0.05300409
-0.0054269149 0.032670535 0.054823436
0.0052402527 0.032908365 0.055265762
0.012764366 0.030961826 0.053719517
-0.012105569 -0.020546092 0.061074786
-0.0051896125 -0.021418639 0.062876754
0.0039819507 -0.021166468 0.061909288
0.010320194 -0.020145802 0.060403161
-0.021333825 -0.01236756 0.062759928
-0.015492048 -0.015771817 0.065048806
-0.0060484908 -0.018462114 0.067559697
0.005669741 -0.017285174 0.066490121
0.013982904 -0.014151711 0.063491501
-0.024825467 -0.0053474563 0.064518459
0.017470781 -0.006385128 0.066500895
0.022196842 -0.0039744023 0.062056433
-0.027462326 0.005268896 0.064509608
0.019109564 0.0054602348 0.068464167
0.023122925 0.0049669696 0.063726328
-0.02343302 0.014926264 0.064209893
-0.018267851 0.019342724 0.067409903
0.0092793852 0.019765269 0.069740921
0.016514327 0.016484492 0.065903418
0.022401938 0.01363132 0.061863281
-0.020733034 0.021290312 0.060912382
-0.014699671 0.023546787 0.063968368
-0.0058757765 0.026500126 0.065101705
0.0055941949 0.025582127 0.065028392
0.013638098 0.023394702 0.062495172
-0.0030920708 0.030302383 0.060624216
0.0016935439 0.030273009 0.060553234
-0.014814008 -0.01344999 0.074400112
-0.0051240874 -0.016095316 0.074909225
0.0045002908 -0.01349879 0.07432583
0.010848587 -0.011287122 0.070598885
-0.022526322 -0.0055316826 0.0737703
-0.019675277 -0.0097342171 0.075586721
0.0087196799 -0.0087776091 0.077350184
0.013160143 -0.0046999301 0.074392572
-0.025172828 0.0047035217 0.073490649
0.015274137 0.0052247019 0.074760258
-0.022086119 0.01372013 0.074715786
-0.016847294 0.018510638 0.075931355
0.0063407887 0.017866107 0.07632459
0.012500569 0.01343701 0.073892832
-0.01270555 0.021130614 0.073968977
-0.0053409599 0.022318661 0.075143442
0.0027898031 0.021593386 0.072665364
-0.014054474 -0.012369658 0.085943893
-0.0052736206 -0.014044757 0.085752405
0.002423743 -0.011963861 0.084400311
-0.02189851 -0.0042751161 0.086242966
-0.01813891 -0.0088185677 0.087553918
0.0071872389 -0.0065373913 0.086375251
0.010888397 -0.0020091701 0.08307346
-0.023070121 0.0056000412 0.086743623
0.008493837 0.0061771302 0.088010482
0.011387259 0.0046119508 0.083075553
-0.020990234 0.011939756 0.085215181
-0.015387972 0.016420893 0.085800089
-0.0048139873 0.018478617 0.086165629
0.0046969587 0.01455248 0.085060708
0.010292888 0.011088952 0.081226334
-0.006585889 0.020365739 0.081722125
-0.011790711 -0.010951479 0.091927394
-0.00610709 -0.01117102 0.092128187
-0.020331506 -0.001749347 0.091668256
-0.014978254 -0.0050544236 0.094290823
-0.0053065452 -0.005596756 0.096392788
0.0032323904 -0.0045786654 0.093542464
-0.020909792 0.0037032121 0.091754787
-0.015355553 0.0052471035 0.095639743
-0.0051472955 0.0053329156 0.098374575
0.0039035422 0.0049251881 0.094151922
-0.01390403 0.012817498 0.092787415
-0.0055312491 0.013768638 0.093984745
0.0017841985 0.01225545 0.092349172
