# .PCD v0.7 - Point Cloud Data file format
VERSION 0.7
FIELDS x y z
SIZE 4 4 4
TYPE F F F
COUNT 1 1 1
WIDTH 136
HEIGHT 1
VIEWPOINT 0 0 0 1 0 0 0
POINTS 136
DATA ascii
-0.0021435283 -0.010691497 0.0098457504
0.0029974915 -0.010691497 0.0094977859
-0.014695261 -0.0033297273 0.008622868
-0.0066643753 -0.0070284968 0.0082168737
0.0029974917 -0.0072793202 0.007651248
0.012982474 -0.0053258282 0.0083409613
-0.021058552 0.0065886127 0.0089175105
-0.016416157 0.0038747303 0.0072215637
-0.0081413873 0.0038747303 0.0053034797
0.0029974915 0.0021610558 0.0051349509
0.015356682 0.0047315676 0.0072058621
0.020991068 0.0047315676 0.0094953738
-0.02114615 0.01524071 0.0087410742
-0.014996083 0.015013609 0.0062807086
-0.0098550618 0.015013609 0.0052484851
0.0004269816 0.012443099 0.0047222441
0.015183861 0.015013608 0.0072719171
0.020991068 0.012443099 0.0095341764
-0.020137105 0.021439888 0.0092126569
-0.016181501 0.025376834 0.0085598752
-0.00728455 0.025295656 0.006453685
0.0029974915 0.025295656 0.0063238577
0.013308634 0.02534149 0.0082351509
-0.0064277127 0.032044426 0.0087647978
0.0029974915 0.032657761 0.0088164173
-0.013103984 -0.011167687 0.016900999
-0.0059725405 -0.013029994 0.014762255
0.0038876198 -0.014159325 0.015285887
0.014905629 -0.012452569 0.016639
-0.021649776 -0.002544424 0.015479793
-0.016362017 -0.006867989 0.013616699
-0.0098550618 -0.0098000299 0.011200853
0.017955914 -0.0084521659 0.01279792
0.023466341 -0.0045610014 0.016251106
-0.025358293 0.0056216884 0.014863396
0.026450157 0.0056811501 0.016037557
-0.026229123 0.015300988 0.014792815
0.025438024 0.015571459 0.016081726
-0.023028187 0.024329579 0.014944237
-0.017811701 0.028117716 0.010996789
0.017997969 0.028499458 0.012554139
0.022829197 0.024067547 0.016246077
-0.020334836 0.03065842 0.018389136
-0.015374999 0.033329975 0.015509963
-0.0064027952 0.037791438 0.016223142
0.004786836 0.038439572 0.015813764
0.01485693 0.034469064 0.016287079
0.020933345 0.030351361 0.019070908
0.0004269816 0.040026542 0.018912384
-0.014441994 -0.012114311 0.025424384
-0.0060505541 -0.015869506 0.025126355
0.0047631352 -0.016668795 0.024663633
0.014432814 -0.014420978 0.025432695
0.020894671 -0.010608738 0.025338663
-0.023156002 -0.0035592644 0.025436033
-0.018813763 -0.008657652 0.024481826
0.025360445 -0.004669467 0.025130937
-0.027600681 0.005838641 0.024960076
0.028155964 0.0060168216 0.025338657
-0.028327104 0.016152442 0.025056986
0.027029259 0.015372478 0.025042066
-0.025309971 0.024950368 0.025151914
0.024839059 0.024154814 0.025726533
-0.021148279 0.031507276 0.026109815
-0.01522025 0.036239397 0.025230046
-0.0089982254 0.03923871 0.024481826
0.0081385151 0.039782714 0.021482896
0.015019669 0.037047591 0.025087509
0.021085836 0.031618871 0.025689188
-0.0042176316 0.040689085 0.025773242
0.0042240452 0.040816899 0.025350045
-0.013487636 -0.011528852 0.034914687
-0.0060111722 -0.014891792 0.0357574
0.0046036304 -0.016025236 0.035871424
0.014520388 -0.012971435 0.035686225
0.020897046 -0.010614932 0.031764939
-0.022500111 -0.0031994185 0.035474129
-0.017598664 -0.008072746 0.03645613
0.018649556 -0.0083387354 0.039476469
0.023791539 -0.0045234393 0.035635777
-0.026456026 0.0056422865 0.035587482
0.025725706 0.0065058665 0.035862427
-0.027368518 0.015143625 0.035221469
0.024620662 0.015184926 0.035289999
-0.024187487 0.024753483 0.035777163
0.018824629 0.028630242 0.039476469
0.022632152 0.023949772 0.035906296
-0.020655239 0.031436224 0.034477554
-0.015332919 0.03538188 0.035963949
-0.0076054521 0.038593497 0.037237156
0.0058207056 0.03902179 0.038742043
0.015302108 0.035479628 0.035836883
0.021130858 0.030641874 0.033304598
-0.0039863763 0.040729713 0.033659991
0.0039096302 0.040774688 0.033991721
-0.010077506 -0.010691497 0.042046983
-0.0052770176 -0.011636197 0.042870566
0.0045784931 -0.012179784 0.043428738
0.011968849 -0.010823618 0.042781144
-0.020449083 -0.0014807573 0.042242765
-0.014920388 -0.0042942679 0.045273501
-0.0066682547 -0.0065209595 0.047945976
0.0051170778 -0.0074420753 0.048446912
0.014877403 -0.0047256504 0.04583025
0.021488737 -0.0015755608 0.04246407
-0.022319302 0.0060743699 0.04445263
-0.017115235 0.0044754054 0.048926782
0.015630318 0.0061797015 0.047281981
0.022032229 0.0053741946 0.042407833
-0.023148648 0.014821375 0.044567928
-0.018548351 0.016130518 0.049758516
0.014985549 0.015487826 0.046169095
0.020797003 0.014054887 0.041565903
-0.021132158 0.022617612 0.043688279
-0.01594018 0.025572957 0.047127079
-0.005999295 0.029478136 0.049758516
0.005922283 0.025553301 0.049261894
0.014608068 0.023940127 0.044628151
-0.01360357 0.031943683 0.043707762
-0.0059342179 0.034105383 0.045733072
0.0044503463 0.034458071 0.045034293
0.012800124 0.032677792 0.043189105
-0.0047140396 -0.0016470173 0.051489957
0.0037319236 -0.0021921387 0.051428143
0.010709025 -0.00040945411 0.050066199
-0.013600598 0.0069970242 0.05184596
-0.0061607296 0.005722377 0.0542184
0.0047214604 0.0059878738 0.05385334
0.010709025 0.0060168225 0.050578885
-0.014539579 0.01523096 0.051997058
-0.0058029508 0.015544183 0.055103257
0.0045319959 0.014868392 0.053596318
0.010709025 0.013728354 0.05022452
-0.012596199 0.021696938 0.05119082
-0.0061349492 0.023766397 0.052130058
0.0026925269 0.022417398 0.051693745
