# .PCD v0.7 - Point Cloud Data file format
VERSION 0.7
FIELDS x y z
SIZE 4 4 4
TYPE F F F
COUNT 1 1 1
WIDTH 962
HEIGHT 1
VIEWPOINT 0 0 0 1 0 0 0
POINTS 962
DATA ascii
-0.032732978 -0.032954413 0.0069732964
-0.024518162 -0.033443157 0.006405768
-0.019018993 -0.032012638 0.0075250939
-0.043033678 -0.023093224 0.0070817298
-0.035284262 -0.025837984 0.0046725213
-0.025231997 -0.026365284 0.0031115967
-0.014721615 -0.025165059 0.0056297872
-0.0076053329 -0.021164071 0.0076904362
-0.046111446 -0.015624614 0.0061958334
-0.03587972 -0.016286969 0.0029688459
-0.012365969 -0.016103705 0.002432659
-0.0045206035 -0.01545836 0.0051522101
0.0021319441 -0.012309867 0.0071349456
-0.045169506 -0.0052636052 0.0063067214
-0.034709942 -0.0047541223 0.0032333722
-0.02602547 -0.0046346984 0.0023295707
-0.014797801 -0.0071593523 0.0018707678
-0.0033990629 -0.007504778 0.0023874687
0.004845106 -0.0055502974 0.0041106488
0.013371036 -0.0029051271 0.0067516747
-0.04150334 0.0015607253 0.0084961168
-0.034546103 0.0048969332 0.0062483437
-0.025391689 0.0048769456 0.0029216122
-0.015963025 0.0050755218 0.0019508358
-0.0043107644 0.0050755218 0.0015927926
0.0058849677 0.0050755246 0.0019132718
0.014933156 0.0044883126 0.0032648842
0.024622984 0.0057162722 0.0066402792
-0.030528367 0.010304123 0.0084961168
-0.024473367 0.013570253 0.006430957
-0.015963189 0.016444163 0.004147341
-0.0053160936 0.017310405 0.0020612576
0.0044284314 0.01672779 0.001876941
0.014138664 0.015756767 0.001973639
0.025157018 0.014299589 0.0032349583
0.031171933 0.015171103 0.0068401732
-0.012529051 0.023383094 0.0067346012
-0.0054971464 0.026079595 0.0042969137
0.0027615249 0.02802532 0.0025754699
0.016220499 0.027035777 0.0023540985
0.025799636 0.025775874 0.0045444174
0.030778337 0.023555255 0.0078401864
-0.0029482634 0.032435857 0.0068520694
0.0042312606 0.035472602 0.0054844148
0.014995801 0.034906793 0.0046257209
0.023271883 0.032664813 0.0066961162
0.0077736825 0.040032327 0.0088098049
0.012928504 0.040132865 0.0084945066
-0.033367898 -0.034253772 0.014633311
-0.025437882 -0.035474904 0.013876752
-0.017964121 -0.031835701 0.014322251
-0.043937933 -0.024292931 0.014322252
-0.03913771 -0.02974005 0.014322251
-0.012911806 -0.027152229 0.014322251
-0.0078707254 -0.022128645 0.014843121
-0.050536416 -0.013373902 0.01557172
-0.048535421 -0.01826036 0.0139061
-0.0028500617 -0.017532414 0.014030945
0.0025664759 -0.013141571 0.014587075
-0.050502382 -0.0087615401 0.014322251
-0.047278915 -0.0027461529 0.013676296
0.0070951781 -0.0093037691 0.014322251
0.014665481 -0.0037022468 0.014322253
-0.042583186 0.0019391607 0.014523512
-0.036303204 0.0064904308 0.01432225
0.025587311 0.0044220439 0.014322253
0.030646041 0.0089523997 0.014322251
-0.030608298 0.01096618 0.014225042
-0.024917513 0.015510024 0.01432225
-0.019133365 0.019764556 0.014322251
0.033531621 0.015370263 0.013679885
-0.013625682 0.02405199 0.014322251
-0.0079625621 0.029109988 0.014322251
0.028807007 0.028779224 0.013593985
0.031914495 0.024089342 0.014587075
-0.0035440563 0.033430435 0.014322251
0.0020955354 0.038293745 0.014322251
0.01899378 0.039003089 0.014322251
0.02430067 0.034071974 0.014493606
0.0062318994 0.040415026 0.014322251
0.014212132 0.040852949 0.014322251
-0.033607408 -0.033943102 0.024064468
-0.025431979 -0.035533737 0.024586249
-0.018744182 -0.03233631 0.025003498
-0.043833893 -0.024215337 0.024517987
-0.03890346 -0.029480888 0.024517987
-0.013371333 -0.027438823 0.024013842
-0.0076012653 -0.021733264 0.024927871
-0.050690845 -0.013178112 0.02353543
-0.048372749 -0.018771784 0.024517983
-0.002616798 -0.017176379 0.02422668
0.0030646704 -0.01308678 0.024854109
-0.050575331 -0.0094898045 0.024517987
-0.047326718 -0.0030606478 0.024632828
0.0074069467 -0.0095427763 0.024368023
0.014576619 -0.0036238078 0.024517987
-0.042147927 0.0021321524 0.024233989
-0.036256429 0.0064331028 0.024517987
0.025475746 0.0045404229 0.024517987
0.030646041 0.0088860989 0.024517987
-0.030489478 0.010871002 0.024780879
-0.024787119 0.015366829 0.024517987
-0.019018093 0.019695994 0.023893757
0.033604953 0.014792106 0.024773771
-0.013631069 0.024220413 0.024726061
-0.0081327157 0.028979439 0.023893757
0.0292302 0.028380066 0.024517985
0.032190524 0.02403063 0.024517987
-0.0037571921 0.03321543 0.024775021
0.0021270688 0.038350292 0.024517989
0.01899378 0.038823619 0.024517985
0.024464343 0.033830088 0.024517983
0.0059784241 0.040560495 0.024517987
0.014157464 0.040887076 0.024517987
-0.032988556 -0.034082912 0.034794882
-0.024674952 -0.035531987 0.034631878
-0.018003162 -0.031924367 0.034713719
-0.043747623 -0.024158731 0.034713723
-0.038778428 -0.02938132 0.034713723
-0.012382301 -0.026724914 0.034921799
-0.0073399507 -0.021749275 0.034297571
-0.050479852 -0.013131145 0.033985458
-0.04868032 -0.017801205 0.035077855
-0.0029416282 -0.018069595 0.034713723
0.003697793 -0.012932276 0.034454413
-0.050607361 -0.0094898045 0.034713723
-0.047327686 -0.0029608579 0.034713723
0.0080060959 -0.0094898045 0.034713723
0.014813798 -0.0038683054 0.034713723
-0.042148422 0.0021343615 0.035275258
-0.036473829 0.0066572074 0.034713723
0.025527418 0.004434743 0.034713723
0.030646041 0.0094635542 0.034713723
-0.030527584 0.010901855 0.03508389
-0.024816042 0.01541105 0.034713723
-0.01951858 0.019640863 0.034713723
0.033374235 0.015073197 0.034713723
-0.014558152 0.023902079 0.034493934
-0.0094297975 0.028380066 0.034713723
0.029388249 0.028380066 0.034713723
0.032219078 0.024074297 0.034713723
-0.0042852038 0.032738656 0.034713726
0.0010148759 0.037569769 0.034713723
0.01899378 0.03936284 0.034713723
0.024602968 0.033960853 0.03471373
0.0052332818 0.04048821 0.034413759
0.014397288 0.041344464 0.034713723
-0.033048205 -0.034251392 0.045153711
-0.024603281 -0.035591427 0.044909455
-0.017939135 -0.031967163 0.044909459
-0.043743245 -0.024153557 0.044909455
-0.038767114 -0.029331464 0.044909455
-0.012759598 -0.027272042 0.044909455
-0.0075490638 -0.022463467 0.044909455
-0.050443266 -0.013651337 0.045533683
-0.048509657 -0.018335236 0.044423945
-0.0027245383 -0.018441744 0.044909455
0.0038324862 -0.013135061 0.044909451
-0.050617475 -0.0094898045 0.044909455
-0.047683951 -0.0031927798 0.044585776
0.0082796775 -0.0094898045 0.044909455
0.015262887 -0.0038415552 0.044860933
-0.042928111 0.0019059777 0.045492072
-0.036918007 0.0067359726 0.04510951
0.02565404 0.0043465286 0.044909455
0.030646041 0.0090132169 0.044909455
-0.030902639 0.011206171 0.044909459
-0.024486598 0.016340587 0.044905994
0.033648401 0.01479575 0.044694439
-0.014564638 0.024263868 0.044950563
-0.0094419196 0.028380066 0.044909455
0.029699255 0.028380066 0.044909455
0.032464184 0.024284661 0.045053944
-0.0043983408 0.032890063 0.044909455
0.00079718418 0.037740011 0.044909459
0.01899378 0.039657712 0.044909455
0.024403807 0.034219582 0.044843208
0.0051896079 0.040670227 0.044909455
0.014492518 0.041372538 0.044909451
-0.033377498 -0.03415193 0.055105198
-0.02449589 -0.035674211 0.055105194
-0.017962044 -0.032104414 0.054662038
-0.043635324 -0.024069803 0.055105202
-0.03878618 -0.029355828 0.055105194
-0.012749834 -0.027326783 0.055105191
-0.0065571433 -0.021964518 0.055105191
-0.050459802 -0.013131145 0.054376923
-0.048636854 -0.017722385 0.055469327
-0.0016944807 -0.017973855 0.055105194
0.0038554501 -0.013464225 0.055094086
-0.050527409 -0.0094898045 0.055105191
-0.047551222 -0.0030844309 0.055313274
0.0086136265 -0.0094898045 0.055105191
0.015235178 -0.0039870092 0.054980751
-0.042762317 0.0019888773 0.054689039
-0.03660579 0.0068422537 0.055105198
0.024879087 0.0035604816 0.055105198
0.030422611 0.0082436707 0.055105194
-0.031075675 0.011370736 0.055105194
-0.02457761 0.016637696 0.055105198
0.033643138 0.014906786 0.055105198
-0.014709708 0.02437515 0.055105191
-0.0099252071 0.028380066 0.055105191
0.029776916 0.028380066 0.055105191
0.032555956 0.024366623 0.055269107
-0.0042160936 0.033268102 0.055287257
0.00094786886 0.037884962 0.054522574
0.01899378 0.039736547 0.053648658
0.024518237 0.034197073 0.055073351
0.0051619508 0.040778603 0.055105198
0.015190513 0.041321348 0.055477455
-0.033369843 -0.034176636 0.065169871
-0.024806991 -0.035665382 0.065557964
-0.017992157 -0.031968813 0.065229312
-0.04373657 -0.024132809 0.065300927
-0.038924709 -0.029491669 0.065300927
-0.012862268 -0.027234487 0.065300927
-0.0075306236 -0.022458315 0.065300927
-0.050403122 -0.013651337 0.065925151
-0.048483666 -0.018312661 0.064815409
-0.0026658042 -0.018528989 0.065300927
0.0038004157 -0.013334279 0.065173738
-0.050644949 -0.0094898045 0.065300927
-0.047511764 -0.0030365437 0.065070957
0.0085457973 -0.0094898045 0.065300927
0.015051508 -0.0043472187 0.065500319
0.020010814 -0.00075061619 0.06384439
-0.042676296 0.0020721026 0.065786429
-0.036547769 0.0067584985 0.065300927
0.025229789 0.0033743063 0.065500848
0.0305725 0.0080570178 0.065519363
-0.030920414 0.01125372 0.065300919
-0.024505666 0.016578129 0.065300927
0.033910867 0.014685476 0.065300927
-0.014696673 0.024319313 0.065300927
-0.0096100457 0.028380066 0.065300927
0.029871114 0.028380066 0.062387858
0.03231499 0.024899451 0.065480731
-0.0040120222 0.033293232 0.065300934
0.0010320395 0.038026776 0.065300927
0.025076978 0.034244772 0.065131769
0.0051033213 0.040844258 0.065300927
0.015548484 0.041415684 0.065300927
-0.033328149 -0.034215577 0.07596229
-0.024996273 -0.035564408 0.07502684
-0.018092539 -0.032128274 0.075864807
-0.043695383 -0.024106426 0.075496681
-0.038962536 -0.029510841 0.075496659
-0.012768361 -0.027275816 0.075496666
-0.0075540678 -0.022442061 0.075496666
-0.050637484 -0.012402877 0.075496659
-0.048776943 -0.017485656 0.075496666
-0.0027124353 -0.018454768 0.075496659
0.0039253286 -0.013294145 0.075496659
-0.050484836 -0.0080332756 0.075496666
-0.04759312 -0.0024096172 0.075496659
0.008955976 -0.0094898045 0.075496666
0.014822477 -0.0047861142 0.075343348
0.020158835 -0.00075061619 0.076953195
-0.043385077 0.0017222414 0.075496666
-0.036977358 0.0069465674 0.075429156
0.025380407 0.003273665 0.07554096
0.030695435 0.0079304939 0.075772874
-0.031143611 0.011366665 0.075496659
-0.024398664 0.016469367 0.075496651
0.034088414 0.0146136 0.075496666
-0.014155093 0.025059965 0.075611793
-0.0099007338 0.028380066 0.072583593
0.0321941 0.02558421 0.075496666
-0.0042318413 0.033278346 0.075314589
0.001024738 0.03781651 0.076079272
0.025094347 0.034180071 0.075449996
0.005157229 0.040816877 0.075496666
0.015528027 0.04136242 0.075496659
-0.033397891 -0.034296002 0.08397346
-0.025292739 -0.03551928 0.08462809
-0.017958259 -0.03212443 0.083978117
-0.043716449 -0.024120571 0.084235854
-0.039093889 -0.029673915 0.084235862
-0.012756677 -0.027261948 0.084235862
-0.0076298798 -0.02240565 0.084235854
-0.050643291 -0.012743813 0.084818475
-0.048628122 -0.017716652 0.08387173
-0.0027297901 -0.018417792 0.084235862
0.0038717641 -0.013204074 0.084235862
-0.050733369 -0.0084651327 0.084166035
-0.047767036 -0.002332252 0.084235862
0.0086109592 -0.0094898045 0.084235862
0.015263472 -0.0042121275 0.084284507
-0.043573037 0.002008213 0.084235862
-0.037025906 0.0069908239 0.084525228
0.025015129 0.0034027926 0.084235862
0.030515604 0.0081388429 0.084235869
-0.031176221 0.0113935 0.084235862
-0.024405187 0.016487598 0.084235862
0.033922877 0.014724115 0.084235862
-0.014115768 0.025017429 0.084235862
0.032228459 0.025630455 0.084235862
-0.0040886244 0.033611767 0.08440721
0.0011736155 0.038160849 0.083507597
0.025266953 0.034389112 0.084213719
0.0051250225 0.040781584 0.084235854
0.015029469 0.041777689 0.084011778
0.020117 0.040032327 0.085692391
-0.033819433 -0.03339383 0.094431601
-0.025275022 -0.035467912 0.095298007
-0.017830318 -0.032125518 0.094431594
-0.043462832 -0.023925884 0.094431594
-0.038709216 -0.029290443 0.094431609
-0.012635128 -0.027373407 0.094431601
-0.0074715875 -0.022477265 0.094431601
-0.050684568 -0.012402877 0.094431594
-0.048569068 -0.017452076 0.094711348
-0.0026509985 -0.01855617 0.094431601
0.0038225674 -0.013116846 0.094431601
-0.050531119 -0.0080332756 0.094431594
-0.047731958 -0.0023236386 0.094431601
0.0084035471 -0.0094898045 0.094431601
0.015164219 -0.0041830312 0.094304949
-0.04341805 0.0017917815 0.094431601
-0.036968887 0.0067959377 0.094639443
0.024960933 0.0034589046 0.094431594
0.030509222 0.0081321783 0.094431601
-0.031038428 0.011313396 0.094431601
-0.024582349 0.016629636 0.094431601
0.034019846 0.014638022 0.094431601
-0.014158009 0.025087668 0.094255365
-0.0099716932 0.028380066 0.098801196
0.032199208 0.02580161 0.09454859
-0.0039854753 0.033917159 0.094431601
0.0015153736 0.038715713 0.094431594
0.025314521 0.034757022 0.094431594
0.0050483607 0.040896293 0.094431601
0.0149403 0.041884605 0.09434592
0.020147678 0.040032327 0.094917111
-0.033348668 -0.034178197 0.10481696
-0.024882162 -0.035650231 0.10440324
-0.017879805 -0.031960197 0.10462733
-0.043521419 -0.023946283 0.10462733
-0.039022975 -0.029599257 0.10462733
-0.012807398 -0.027253792 0.10462733
-0.0076542562 -0.022384157 0.10462733
-0.05048655 -0.012402877 0.10462733
-0.048628379 -0.017328167 0.10462733
-0.002633868 -0.018540768 0.10462733
0.0036401248 -0.013456034 0.10481788
-0.050510209 -0.0087615401 0.10389906
-0.047971152 -0.0032046884 0.10489215
0.0083086547 -0.0094898045 0.10462733
0.015187188 -0.0039237835 0.10464972
-0.04331509 0.0016376243 0.10462733
-0.036702104 0.0069663748 0.10462733
0.02506157 0.0039733173 0.1048094
0.030461749 0.0083276546 0.10404471
-0.031231508 0.01148625 0.10462733
-0.024656804 0.016696688 0.10471008
0.034091044 0.014656112 0.10462733
-0.014556421 0.024691563 0.10447401
-0.0098950565 0.028380066 0.10608386
0.032470085 0.025889963 0.10462733
-0.0042598015 0.033308696 0.10444526
0.00095392764 0.03791111 0.10520995
0.02535264 0.034760911 0.10462733
0.0050744265 0.04094062 0.10462733
0.015348697 0.04176591 0.10483541
0.020038128 0.040032327 0.10171427
-0.033198129 -0.034021731 0.11439415
-0.024783293 -0.03566236 0.1150801
-0.017981797 -0.031961259 0.11490296
-0.04357551 -0.024019295 0.11482306
-0.038786095 -0.029371327 0.11482307
-0.012887632 -0.027221803 0.11482306
-0.0074905804 -0.022479933 0.11482307
-0.050567482 -0.012402877 0.11482307
-0.048615679 -0.017324038 0.11482307
-0.0026729319 -0.018533397 0.11482307
0.0038764605 -0.013159263 0.11482307
-0.050654538 -0.0094898045 0.11482307
-0.047667392 -0.0031998374 0.11449938
0.0082099736 -0.0094898045 0.11482307
0.015068847 -0.0038823404 0.1147377
-0.043007966 0.0019758015 0.11540568
-0.037006006 0.0070443694 0.11472166
0.025288381 0.004403397 0.11475973
0.030518169 0.00851906 0.11511438
-0.031174162 0.011407096 0.11482307
-0.024579832 0.016640309 0.11471038
0.034166928 0.014665565 0.11482306
-0.01423589 0.024857393 0.11514455
-0.0097453818 0.028380066 0.11191
0.032252401 0.026049247 0.1147967
-0.003834588 0.033770289 0.11482306
0.0015153736 0.038628463 0.11482307
0.025191452 0.034618236 0.11482306
0.0050520366 0.04096812 0.11482307
0.014834288 0.04212217 0.11567411
0.020165049 0.040032327 0.11191
-0.033909969 -0.033547785 0.12501881
-0.025559479 -0.035517126 0.12484736
-0.018583722 -0.032301046 0.12543496
-0.043504484 -0.023965357 0.12501881
-0.038733799 -0.029283978 0.12501881
-0.013345581 -0.027627707 0.12481073
-0.0071034166 -0.022274725 0.12531011
-0.050480485 -0.012402877 0.12501881
-0.048557915 -0.017419439 0.12539627
-0.0024585221 -0.01837478 0.12465467
0.0038967114 -0.013201209 0.12501881
-0.050483819 -0.0094898045 0.12501881
-0.047922596 -0.0036118492 0.12501881
0.0083896518 -0.0094898045 0.12501881
0.015018591 -0.0040834243 0.12501881
-0.043330722 0.0016097013 0.12501881
-0.036825791 0.0067944489 0.12490351
0.025233299 0.0037937155 0.12483674
0.030563165 0.0081792576 0.1260044
-0.031126795 0.01137127 0.12501881
-0.024479438 0.016556131 0.12501879
0.034204803 0.014619902 0.12501881
-0.013900023 0.025140509 0.12507991
0.032250509 0.025915314 0.12477227
-0.0041750707 0.033223286 0.12483673
0.00098223984 0.037912827 0.12560141
0.025206799 0.034640923 0.12501879
0.0061461246 0.041504588 0.12501881
0.014384221 0.042574219 0.12474064
0.020155063 0.040032327 0.12501881
-0.033748589 -0.033196796 0.13521454
-0.02516048 -0.035435677 0.13417678
-0.018108526 -0.032015316 0.13489097
-0.043147385 -0.023684448 0.13521454
-0.03844415 -0.028983675 0.13521454
-0.012828898 -0.027252832 0.13521454
-0.0072078663 -0.022311345 0.13487843
-0.050316773 -0.012402877 0.13521454
-0.048428666 -0.017167944 0.13521455
-0.0024495912 -0.018496735 0.13561177
0.0038030483 -0.013292997 0.13528506
-0.050376613 -0.0094898045 0.13521454
-0.047479413 -0.003040771 0.13498457
0.0081975646 -0.0094898045 0.13521454
0.015192925 -0.0041698217 0.13530354
0.020015433 -0.00075061619 0.13375801
-0.042471074 0.0019980331 0.13525023
-0.03645891 0.0066761686 0.13521454
0.025104869 0.0033000992 0.13521454
0.030557288 0.0080865007 0.13499103
-0.031002982 0.011295881 0.13521454
-0.02449749 0.016579274 0.13521454
0.034099814 0.014635301 0.13521452
-0.014487143 0.024397049 0.13515726
-0.0090362849 0.028690431 0.13608846
0.032279331 0.025673984 0.13521455
-0.0040903687 0.032834593 0.13498457
0.0018113628 0.037919082 0.13579716
0.025206003 0.034636933 0.13521454
0.0058011352 0.040944122 0.13434052
0.014397232 0.042330213 0.135066
0.020083955 0.040032327 0.13375801
-0.033745762 -0.033186074 0.14541027
-0.02470223 -0.034945387 0.14541025
-0.019293984 -0.032501131 0.14541028
-0.043113172 -0.023672793 0.14541027
-0.038429745 -0.028918548 0.14541028
-0.013515241 -0.02780864 0.14541025
-0.0074162832 -0.022522414 0.14541027
-0.05027565 -0.012402877 0.14541027
-0.048366997 -0.017116163 0.14541027
-0.0027328052 -0.018449206 0.14541027
0.003455258 -0.013354002 0.14499043
-0.050384104 -0.0094898045 0.14541028
-0.047719229 -0.0033789503 0.14578016
0.0079265051 -0.0095915906 0.14613855
0.014830068 -0.0038932662 0.14541028
-0.043189742 0.0019314755 0.14504613
-0.036963679 0.0066519668 0.14550957
0.025146978 0.0045039803 0.14553882
0.030646041 0.0094922436 0.14541027
-0.030920852 0.011219501 0.14541028
-0.024716431 0.016221348 0.14511335
0.033659711 0.014887778 0.14541025
-0.014540142 0.024079196 0.14541027
-0.0081076082 0.029084153 0.14541027
0.032099538 0.025475007 0.14541027
-0.0033843059 0.033233978 0.14541028
0.0020353869 0.03801091 0.14504614
0.02526751 0.034381166 0.1454795
0.0055350531 0.040707685 0.14605056
0.014910616 0.042075794 0.14577223
0.020007566 0.040032327 0.14541027
-0.033612322 -0.032923728 0.15560602
-0.024702232 -0.03500364 0.15560603
-0.018735349 -0.032358382 0.15576784
-0.043548621 -0.022654491 0.15548083
-0.038693987 -0.028082801 0.155606
-0.013454257 -0.02755763 0.15552934
-0.0076752668 -0.022403672 0.155606
-0.05005607 -0.012402877 0.1512364
-0.04842722 -0.015977316 0.15589732
-0.0028147846 -0.018281892 0.15560603
0.0026360294 -0.013582592 0.155606
-0.050091967 -0.0094898045 0.15269294
-0.047072988 -0.0037287974 0.1556945
0.0074694287 -0.0095953383 0.155606
0.014318544 -0.0039778696 0.15583007
-0.04171465 0.0017699086 0.15503381
-0.036249686 0.0063889832 0.15560599
0.01899378 8.6791813e-05 0.15269294
0.024992701 0.0049470747 0.15560599
0.030646041 0.0095453039 0.155606
-0.03076091 0.011089657 0.155606
-0.024405779 0.016275458 0.15540726
0.033828024 0.014837578 0.15560597
-0.014574703 0.024158984 0.155606
-0.0094882771 0.028380066 0.155606
0.032268658 0.025661821 0.15560599
-0.0043449826 0.032800235 0.155606
0.0010259543 0.037551999 0.15560602
0.025096158 0.034276381 0.15562312
0.0052480847 0.040789418 0.15560602
0.014612712 0.042235892 0.15566486
0.020087264 0.040032327 0.15851907
-0.03346011 -0.032646161 0.16585183
-0.023959974 -0.034137152 0.16606657
-0.019152761 -0.031974617 0.16507347
-0.043165721 -0.02343611 0.16578367
-0.038250703 -0.028899625 0.16580175
-0.013197142 -0.026846128 0.16559668
-0.0074076741 -0.021731637 0.16538559
-0.048543148 -0.015782353 0.16580173
-0.0029088142 -0.018137978 0.16580172
0.0037554298 -0.012983503 0.16561025
-0.050037444 -0.0094898045 0.16871481
-0.047139477 -0.0038355854 0.1657383
0.0082556661 -0.0094898045 0.16580173
0.015175967 -0.003912271 0.16587231
-0.042052977 0.0020500231 0.16605157
-0.036355909 0.006537843 0.16580173
0.025355697 0.0043536415 0.16560329
0.030646041 0.0088299811 0.16580175
-0.030669583 0.011002995 0.16580173
-0.024838336 0.015449417 0.16580173
-0.019799918 0.019640863 0.16580175
0.033979155 0.014755625 0.16580173
-0.014553494 0.024091823 0.16580175
-0.0094711483 0.028380066 0.16580173
0.032269221 0.025663409 0.16580173
-0.0042436719 0.032679245 0.16580173
0.0011735733 0.03741781 0.16580173
0.025199303 0.034309518 0.16589127
0.005784607 0.040976889 0.16609305
0.014732781 0.042179737 0.16560839
-0.032822773 -0.032902755 0.17511971
-0.023892403 -0.034298539 0.17427611
-0.019095138 -0.032093924 0.1752692
-0.043677468 -0.022636628 0.17471614
-0.037752464 -0.028572805 0.17422871
-0.013156126 -0.026888797 0.17481108
-0.0074585103 -0.021694684 0.17454094
-0.04851022 -0.015747644 0.17454097
-0.0030638047 -0.017924579 0.17454095
0.0034895153 -0.013163125 0.17450701
-0.050036129 -0.0094898045 0.17454094
-0.04707738 -0.0031219751 0.17454095
0.0078687631 -0.0096047372 0.1752692
0.015059471 -0.0037819589 0.17450035
-0.042405039 0.0023662597 0.17454094
-0.036624093 0.006835585 0.17454095
0.025551552 0.0044645462 0.17454095
0.030646041 0.0089281602 0.17454094
-0.030887675 0.011176115 0.17454097
-0.024491701 0.016158011 0.1747123
-0.019818038 0.019640863 0.17162788
0.033772159 0.014868943 0.17454095
-0.014546465 0.024233231 0.17451856
-0.0081707388 0.029079957 0.17454094
0.032117017 0.02550186 0.17454094
-0.0032719984 0.033127718 0.17454094
0.0011638999 0.037459422 0.17454094
0.025260724 0.034367636 0.17435867
0.0052809664 0.040766951 0.17454095
0.0145397 0.042119581 0.17439055
-0.033528294 -0.032745719 0.18493572
-0.023813162 -0.03430346 0.18502799
-0.01905329 -0.032044496 0.18386276
-0.043360956 -0.022625301 0.18494405
-0.038690466 -0.02810606 0.18473667
-0.013241723 -0.026788859 0.18473667
-0.0072421879 -0.021126105 0.18493232
-0.048415326 -0.015694862 0.18473667
-0.0025624584 -0.017253812 0.18502799
0.0029871133 -0.012981255 0.18440059
-0.04734654 -0.0041533313 0.1845649
0.0074744802 -0.0095907804 0.18473668
0.015148166 -0.0037079405 0.18482269
-0.042101175 0.0020894425 0.18434763
-0.036620755 0.0068328395 0.18473667
0.025268141 0.004405281 0.18492666
0.030529303 0.0086429184 0.18386278
-0.030848211 0.011122229 0.18473668
-0.024339264 0.016415315 0.18473667
0.033994313 0.014748218 0.18473667
-0.014561871 0.024246557 0.18464524
-0.0081289001 0.029069064 0.1847367
0.032124419 0.025723098 0.18496309
-0.0033268509 0.033192702 0.18473667
0.0014804883 0.03775727 0.18522221
0.02521487 0.034665205 0.18473667
0.0059477668 0.041038256 0.18462184
0.01426098 0.042734176 0.18477173
0.020419162 0.040032327 0.18473668
-0.032719474 -0.03281619 0.19522373
-0.023578208 -0.034086727 0.19493243
-0.018876091 -0.031750347 0.1949324
-0.042946037 -0.022662675 0.1946411
-0.038177278 -0.028107975 0.19446187
-0.013287367 -0.026750708 0.19493242
-0.0070289723 -0.021301132 0.1949324
-0.047753412 -0.01617882 0.19514051
-0.0027477012 -0.017636219 0.1946411
0.0026162241 -0.013216166 0.19519727
-0.047245547 -0.0044413828 0.19493243
0.0073117767 -0.0094642602 0.19493876
0.014197693 -0.003976604 0.19502838
-0.041903626 0.0018799927 0.1949324
-0.036490452 0.0066736918 0.19493245
0.01899378 0.00038067997 0.19784547
0.024938427 0.0046704561 0.1949081
0.030646041 0.009811407 0.19493243
-0.030672751 0.011005459 0.1949324
-0.024650279 0.015828688 0.19475034
-0.019745611 0.019640863 0.19638894
0.033748891 0.014891271 0.19493242
-0.014493519 0.023976484 0.19493243
-0.008081181 0.029085752 0.1949324
0.032326296 0.026011791 0.19509998
-0.0032363001 0.033059735 0.19493243
0.0023100295 0.03778401 0.19474362
0.025090942 0.034495004 0.19493243
0.0062094284 0.040785044 0.19493243
0.014730483 0.042183071 0.19508804
-0.033029195 -0.032760296 0.20449491
-0.023618015 -0.033893529 0.20512815
-0.018876091 -0.031648632 0.20512815
-0.043100156 -0.022280321 0.20483686
-0.03795588 -0.028167434 0.20536168
-0.013457743 -0.026586555 0.20512812
-0.0072310683 -0.021131271 0.20498888
-0.047824293 -0.015684258 0.20538518
-0.0028655175 -0.017653441 0.20546427
0.0025003524 -0.013172926 0.20483685
-0.047061466 -0.0045761578 0.20512812
0.0070860628 -0.0092754252 0.20512813
0.013446212 -0.0040897564 0.2051075
-0.041861586 0.0018296316 0.20512815
-0.036301196 0.0064622238 0.20512815
0.01899378 0.00028596073 0.20512815
0.025049709 0.0048708166 0.20512812
0.030646041 0.0097298734 0.20512815
-0.030477596 0.01086092 0.20483449
-0.024915287 0.015520982 0.20512812
-0.019609571 0.019640863 0.20512815
0.033491936 0.014939532 0.20501631
-0.014390597 0.023696827 0.20492768
-0.0079182368 0.028959977 0.20512816
0.02984266 0.028380066 0.20949775
0.03225565 0.025136298 0.20499884
-0.0032226266 0.03307312 0.20512815
0.0022297718 0.037934896 0.20526056
0.01899378 0.039871767 0.20658469
0.02497641 0.034128971 0.20496008
0.0055587348 0.040665384 0.20492028
0.015086293 0.041575421 0.20471936
-0.032206729 -0.032955196 0.21532388
-0.023636986 -0.033398047 0.21535738
-0.018876091 -0.030791536 0.2153239
-0.042207725 -0.022600034 0.21532388
-0.037573881 -0.02814728 0.21532387
-0.013741289 -0.02636287 0.21532388
-0.007479114 -0.020929147 0.2153239
-0.047217723 -0.01603369 0.21502176
-0.0027959899 -0.01701067 0.21525045
0.0030758663 -0.012536097 0.21532388
-0.046404202 -0.0047748028 0.21552829
0.0074866824 -0.0088752424 0.21574004
0.013491036 -0.0039109862 0.21515828
-0.041376714 0.0013830811 0.21386734
-0.036026321 0.005886497 0.21563981
0.01899378 0.00055934489 0.2153239
0.024730708 0.005134847 0.21527599
-0.03046657 0.010851339 0.21476071
-0.024771402 0.015358439 0.2153239
-0.019484922 0.019640863 0.2153239
0.03282227 0.01432786 0.21532388
-0.014336755 0.023740882 0.2153239
-0.0078591583 0.028897239 0.2153239
0.029635306 0.028380066 0.2153239
0.032552298 0.024117978 0.21515383
-0.003107415 0.032968372 0.2153239
0.0024229006 0.037778031 0.21500988
0.024858454 0.034239683 0.2153239
0.0063097551 0.040692516 0.21532387
0.015794657 0.041413911 0.2151213
-0.031874608 -0.032556664 0.22551963
-0.023892153 -0.033437259 0.22551961
-0.018876091 -0.031049889 0.22551961
-0.041728821 -0.022319397 0.2255196
-0.03718644 -0.027725872 0.22551961
-0.013694256 -0.026347 0.22551966
-0.0078538172 -0.020792967 0.22489539
-0.046621941 -0.01582163 0.22550562
-0.0031218801 -0.016951298 0.22577664
0.0028416677 -0.012179196 0.22551963
-0.046194352 -0.0049301526 0.22534482
0.0073631364 -0.0085331816 0.22610223
0.013616695 -0.0035317242 0.22525482
-0.041433491 0.0014146765 0.22697616
-0.035938434 0.0056468532 0.22531158
0.01899378 0.001085408 0.22551963
0.024480671 0.0053302245 0.22551963
-0.030528367 0.010172669 0.22551963
-0.025428697 0.01441443 0.22551964
-0.018922171 0.019637071 0.22625341
0.032670077 0.014465654 0.22551966
-0.013522517 0.02406491 0.22531153
-0.0077757742 0.02883574 0.22551963
0.029582325 0.028380066 0.22551963
0.032297276 0.024158308 0.2255196
-0.0028821072 0.032928027 0.22548787
0.0026066466 0.037766397 0.22551963
0.01899378 0.039799713 0.22843269
0.02468558 0.034048788 0.22531544
0.0062958188 0.040688068 0.22551963
0.015310056 0.041389801 0.22517586
-0.031674642 -0.032364797 0.23571536
-0.023894954 -0.03342969 0.23571536
-0.018876091 -0.031020295 0.23571536
-0.041745134 -0.022349773 0.23571534
-0.037153263 -0.027699661 0.23571536
-0.013739306 -0.026308311 0.23571536
-0.0079254778 -0.02077621 0.23629797
-0.046599586 -0.015302227 0.23564278
-0.0032723616 -0.016951848 0.23549129
0.0028636621 -0.012215648 0.23571536
-0.046405878 -0.0051060147 0.23571536
0.0072757117 -0.0087250024 0.23613152
0.013601468 -0.0036862642 0.23554398
-0.04126481 0.0013504302 0.23571536
-0.034915973 0.0063847587 0.23578207
0.01899378 0.00063431764 0.23571536
0.024764342 0.0050996933 0.23569702
-0.025172565 0.014190359 0.23571536
-0.018542089 0.019389894 0.23571536
0.032701753 0.014469289 0.23571536
-0.013032355 0.023995457 0.23571537
-0.0076465337 0.028739115 0.23571536
0.02999153 0.028380066 0.23571534
0.032469857 0.024538737 0.23591742
-0.0027815439 0.032682437 0.23571536
0.0026964711 0.037636731 0.23571536
0.01899378 0.039630696 0.23571536
0.024764458 0.034145549 0.23571536
0.0063414327 0.040620651 0.23571536
0.014458816 0.041252576 0.23571536
-0.031651478 -0.03220566 0.2442431
-0.024236109 -0.03328602 0.24463674
-0.018876091 -0.030630305 0.24445455
-0.041716803 -0.022339461 0.24445455
-0.036924236 -0.02753919 0.24445456
-0.014018188 -0.026091591 0.24445455
-0.0076773642 -0.020774378 0.24445459
-0.04663853 -0.015078427 0.24451685
-0.0028663888 -0.016756672 0.24445456
0.0028592895 -0.01219364 0.24445458
-0.046510503 -0.0051298253 0.24460748
0.0076142238 -0.008146273 0.24445458
0.013756109 -0.0030186912 0.24436055
-0.041401964 0.0010994703 0.24387193
-0.036024246 0.0055176476 0.24440378
0.019242343 0.0014271773 0.24518281
0.02488986 0.0056308885 0.24414891
-0.030528367 0.010177493 0.24445455
-0.025059553 0.014356262 0.24473391
-0.018652661 0.01947139 0.24445455
0.032472566 0.014150902 0.2446591
-0.013069032 0.024024615 0.24445458
-0.0073672985 0.028496774 0.24505799
0.029585253 0.028380066 0.24445455
0.032317802 0.024286222 0.24445456
-0.0026996057 0.032405924 0.24425882
0.0027907128 0.037424099 0.24445455
0.01899378 0.039961375 0.24445455
0.024719596 0.034085333 0.24445458
0.0066237031 0.04042339 0.24445456
0.015486829 0.041106276 0.24437404
-0.031984903 -0.031344146 0.25465029
-0.025200373 -0.033049442 0.25465032
-0.018876091 -0.030623984 0.25465029
-0.041964121 -0.021427225 0.25420478
-0.037233826 -0.026632352 0.25505355
-0.014022808 -0.026052264 0.25465035
-0.0081423447 -0.020820562 0.25367928
-0.046190839 -0.01524615 0.25416669
-0.0033274246 -0.016953224 0.25515255
0.0027249828 -0.011938239 0.25465032
-0.045339648 -0.0044126841 0.25441822
0.0071976585 -0.0079526957 0.25465029
0.013729154 -0.0026473943 0.25479376
-0.035429075 0.0053501236 0.25453961
0.019269306 0.0019264743 0.25465029
0.025001897 0.0063311579 0.25465032
-0.024805883 0.013887947 0.25470722
-0.018405033 0.019228207 0.25465029
0.032634929 0.014537042 0.25465032
-0.012886614 0.023802787 0.25465029
-0.0070928074 0.028281029 0.25465029
0.029604215 0.028380066 0.25465029
0.032330602 0.024262652 0.25465029
-0.0023833979 0.032319639 0.25465029
0.0028429455 0.037301145 0.25465029
0.01899378 0.039771393 0.25756335
0.024698898 0.034286436 0.25475544
0.0068446361 0.040293127 0.25465026
0.015461571 0.040978432 0.25418451
-0.031693596 -0.031365536 0.26426345
-0.025255268 -0.032844715 0.26484606
-0.018876091 -0.030229127 0.26484603
-0.041902304 -0.020828079 0.26484603
-0.036511548 -0.026763592 0.26507866
-0.014271122 -0.025810607 0.26484603
-0.009131521 -0.02114208 0.26484603
-0.045490425 -0.01570186 0.26484603
-0.0039928835 -0.017142959 0.26484603
0.00256399 -0.011715687 0.26484603
-0.044304512 -0.0044775466 0.264846
0.0071241576 -0.0079330187 0.26484603
0.013545486 -0.0026779792 0.26484606
-0.034885868 0.0050450875 0.26484606
0.019176958 0.0020155038 0.26484603
0.02483405 0.0065202191 0.26484606
-0.02448976 0.013639031 0.26484603
-0.01812565 0.019009933 0.26484603
0.029707894 0.01090166 0.26630256
0.032373 0.015322002 0.26410598
-0.012722522 0.023587594 0.26484606
-0.0072066491 0.028365429 0.26529148
0.028568566 0.028978089 0.26542863
0.031778831 0.024479719 0.26455471
-0.0024973515 0.032443129 0.26484606
0.0030100064 0.03705005 0.26484603
0.01899378 0.039280888 0.26484603
0.023938462 0.034170803 0.26466399
0.0072139949 0.040102195 0.26484603
0.014328687 0.04085651 0.26484606
-0.031499393 -0.031367995 0.27601278
-0.025308041 -0.032668352 0.2750816
-0.018876091 -0.03012988 0.27504176
-0.041865636 -0.020762438 0.27504173
-0.036637567 -0.026758624 0.27462462
-0.014896894 -0.026483966 0.27509516
-0.0088717081 -0.02114208 0.27504176
-0.045332935 -0.015555386 0.27504176
-0.0040686056 -0.01707763 0.27504179
0.0020123099 -0.011956061 0.27438146
-0.044620961 -0.0042922101 0.27504182
0.0065584844 -0.0081252968 0.27545792
0.013369501 -0.0024597459 0.27504179
-0.035060558 0.0052400366 0.27504179
0.019103613 0.0020801839 0.27538574
0.024863344 0.006503114 0.27504176
-0.024584902 0.013713132 0.27504176
-0.018247832 0.019137951 0.27504173
0.029575154 0.01090166 0.27358526
0.032573182 0.015776629 0.27540421
-0.01263151 0.023728391 0.27525747
-0.0071257637 0.028305301 0.27492923
0.02876683 0.028886341 0.27407074
0.03208667 0.024169693 0.27533311
-0.0024983974 0.03215535 0.27475047
0.002769578 0.036851235 0.27537787
0.01899378 0.039603978 0.27504176
0.024210468 0.034393664 0.27544904
0.0070664883 0.040191147 0.27504176
0.014452088 0.04102587 0.27504176
-0.031693596 -0.031430315 0.28465492
-0.025072604 -0.03293395 0.28523752
-0.018876091 -0.030972641 0.28523749
-0.041981936 -0.020877009 0.28523749
-0.036785454 -0.026735727 0.28570762
-0.013767937 -0.026293792 0.28523746
-0.007790531 -0.020598844 0.28523749
-0.045212086 -0.015471103 0.28555396
-0.0031288404 -0.016546309 0.28523749
0.0025700957 -0.011980021 0.28475401
-0.044481579 -0.0043511242 0.28523746
0.0073477891 -0.0080406796 0.28523749
0.013503174 -0.0026459387 0.28523749
-0.034583766 0.0045921193 0.28534916
-0.029983312 0.007988587 0.28815055
0.018979713 0.0021746382 0.28603786
0.024832683 0.006522805 0.28523749
-0.024623526 0.013455573 0.28501612
-0.018073592 0.019024124 0.28523752
0.032592874 0.014787483 0.28546989
-0.012299964 0.023680123 0.28541023
-0.0064559625 0.028325798 0.28482136
0.029737255 0.028380066 0.28523749
0.032599594 0.024201687 0.28499925
-0.0026263725 0.031419739 0.28560162
0.0024972595 0.036111102 0.28523749
0.01899378 0.039515119 0.28523749
0.024505118 0.034167688 0.2851266
0.0071978401 0.040127091 0.28562093
0.014451833 0.041209631 0.28523752
-0.030528367 -0.031127006 0.29106364
-0.025017837 -0.032111652 0.29230598
-0.018876091 -0.030440077 0.29106364
-0.040731907 -0.02114208 0.29106364
-0.034153685 -0.025001295 0.29456085
-0.024616543 -0.026540527 0.29810345
-0.015281841 -0.025059408 0.29485711
-0.0093940496 -0.02114208 0.29252017
-0.04315789 -0.015224807 0.29321727
-0.035738129 -0.015830858 0.29752418
-0.02470223 -0.015315945 0.29909995
-0.014170375 -0.015598686 0.29872271
-0.0047263098 -0.015603402 0.29494154
0.001817229 -0.011839092 0.29199904
-0.04327403 -0.0066302782 0.29307106
-0.035703108 -0.0041814945 0.29610312
-0.024702232 -0.0051202103 0.2988835
-0.014506496 -0.0051202103 0.29916501
-0.004310762 -0.0051202103 0.2991733
0.0047738804 -0.0060435138 0.2957879
0.012137372 -0.0021047252 0.29371327
-0.032381456 0.003372079 0.29318646
-0.025783781 0.005756835 0.29594702
-0.014506496 0.0050755246 0.29887828
-0.004310762 0.0050755241 0.29920015
0.0050933664 0.0053679934 0.29976794
0.01562381 0.0041359621 0.29670027
0.023329549 0.0070909103 0.29331213
-0.023061018 0.012664591 0.29361066
-0.015272421 0.01609141 0.29641515
-0.004310762 0.015271258 0.29915762
0.0048478656 0.014308407 0.29957128
0.014673561 0.014991379 0.29972169
0.025615357 0.014840268 0.29718679
0.03167044 0.016722955 0.29275885
-0.012000817 0.022311827 0.29291952
-0.0050545875 0.025833249 0.2950857
0.0037997013 0.026079779 0.29837576
0.01453256 0.025651302 0.29973558
0.025796287 0.025876574 0.29656231
0.031123798 0.024148891 0.29268891
-0.0015296191 0.031127948 0.29204255
0.0045215054 0.034433033 0.29416445
0.015026524 0.035772026 0.29645109
0.022793567 0.032725509 0.29335919
0.0085808337 0.040032327 0.29106364
0.013708068 0.040394794 0.29186523
0.01899378 0.018184327 0.30004823
