# .PCD v0.7 - Point Cloud Data file format
VERSION 0.7
FIELDS x y z rgb imX imY
SIZE 4 4 4 4 4 4
TYPE F F F F F F
COUNT 1 1 1 1 1 1
WIDTH 67
HEIGHT 1
VIEWPOINT 0 0 0 1 0 0 0
POINTS 67
DATA ascii
-0.010985634 0.71899998 -0.051506419 1.1119274e-38 311.28574 280.85715
-0.004921142 0.71735269 -0.052787513 1.0752654e-38 316.08823 281.97058
0.0036590472 0.71754539 -0.051867109 1.0662256e-38 322.90909 281.22729
0.010043093 0.71600002 -0.050215468 1.0668378e-38 328 280
-0.022156436 0.72725004 -0.051642239 1.1491284e-38 302.625 280.5
-0.015429478 0.72304165 -0.052770656 1.112143e-38 307.83334 281.625
-0.0088367993 0.72000003 -0.054283202 1.0661897e-38 313 283
0.003156 0.72000003 -0.050496001 1.0660811e-38 322.5 280
-0.022027127 0.73900002 -0.054419957 1.1130418e-38 303 282
-0.012799333 0.73000002 -0.056317072 1.0206682e-38 310 284
-0.023385961 0.741 -0.053268019 1.1401966e-38 302 281
-0.020170346 0.71899998 -0.040971015 1.2038349e-38 304 272.5
-0.013868439 0.71643394 -0.043921225 1.1853598e-38 308.96228 274.96228
-0.0050375215 0.71488887 -0.044665355 1.1485535e-38 315.98148 275.62964
0.004427779 0.71611106 -0.044509031 1.1119272e-38 323.52383 275.44446
0.012496608 0.71682841 -0.043666866 1.0755528e-38 329.94287 274.74286
-0.032141108 0.72633338 -0.04390889 1.2414678e-38 294.7619 274.4762
-0.024785319 0.72265571 -0.045038469 1.1948311e-38 300.4426 275.54095
-0.017349869 0.72081828 -0.048141595 1.1761764e-38 306.27274 278.09091
0.0025248001 0.72000003 -0.0492336 1.0843763e-38 322 279
0.018331099 0.72100002 -0.041084982 1.3152959e-38 334.5 272.5
0.020254506 0.722 -0.040509012 1.5566236e-38 336 272
-0.033918232 0.73000002 -0.046077598 1.3809141e-38 293.5 276
-0.032874998 0.75 -0.049969997 1.3170266e-38 295 278
-0.022352748 0.71848559 -0.034301661 1.1945444e-38 302.25714 267.22858
-0.014703485 0.71446669 -0.034533575 1.2130924e-38 308.26669 267.56668
-0.0052416869 0.71103698 -0.035046831 1.1761406e-38 315.7963 268.11111
0.0045360215 0.71267784 -0.034735795 1.1392984e-38 323.62711 267.7966
0.014121167 0.71654212 -0.034263045 1.1303312e-38 331.23727 267.27118
0.020114239 0.71700001 -0.030799929 1.2979032e-38 336 264.5
-0.040845651 0.72799999 -0.033187091 1.61216e-38 288 266
-0.034096792 0.72502035 -0.034191143 1.2318173e-38 293.18365 266.89795
-0.027342446 0.72124141 -0.035190728 1.1945436e-38 298.3793 267.82758
0.01844156 0.72040004 -0.03814622 1.2043743e-38 334.60001 270.20001
0.020793259 0.72072744 -0.036304202 1.500552e-38 336.45456 268.72729
-0.041597836 0.73000002 -0.031358365 1.6491111e-38 287.5 264.5
-0.023065493 0.71748865 -0.02446091 1.2964637e-38 301.66669 259.44446
-0.014480639 0.71449214 -0.024356579 1.305899e-38 308.44446 259.44446
-0.0051481375 0.71210772 -0.02510062 1.231386e-38 315.87692 260.1077
0.0042389757 0.71250719 -0.024763692 1.2038348e-38 323.3913 259.82608
0.014161381 0.71671641 -0.024607765 1.2043045e-38 331.26669 259.58334
-0.041483864 0.72800004 -0.028081385 1.6398918e-38 287.5 262
-0.034549154 0.72630376 -0.025308989 1.2315667e-38 292.875 259.875
-0.028145151 0.72100013 -0.024816124 1.2590455e-38 297.73685 259.63159
0.018935999 0.72000003 -0.023985602 1.564733e-38 335 259
0.020198401 0.72000003 -0.0233544 1.7047174e-38 336 258.5
-0.041526649 0.73100001 -0.024608383 1.6398919e-38 287.60001 259.20001
-0.038557991 0.73000002 -0.021598876 1.1040776e-38 289.875 256.875
-0.022336669 0.71863633 -0.017983302 1.2958502e-38 302.27274 254.27274
-0.013480074 0.7172305 -0.016055858 1.3049616e-38 309.28204 252.76924
-0.0054097525 0.71643573 -0.015875448 1.2958498e-38 315.69232 252.64102
0.0033242328 0.71614993 -0.017640376 1.2315663e-38 322.64999 254.05
0.013226855 0.71833336 -0.018892165 1.2325755e-38 330.5 255
-0.031991635 0.72718185 -0.015703969 1.3422012e-38 294.90909 252.31819
-0.025213795 0.72369802 -0.01385507 1.3141814e-38 300.13208 250.92453
-0.016102402 0.72195995 -0.012047713 1.3141093e-38 307.28 249.51999
-0.004165919 0.72129422 -0.011232264 1.3051779e-38 316.70587 248.88235
0.0049216473 0.72188634 -0.013087877 1.2413632e-38 323.88638 250.34091
0.011987271 0.72261542 -0.016372629 1.140524e-38 329.46155 252.92308
-0.041013971 0.73100001 -0.01538024 1.7692908e-38 288 252
-0.036545917 0.73042876 -0.015550816 1.3253834e-38 291.46429 252.14287
-0.02327561 0.72737503 -0.0078113172 1.2958876e-38 301.75 246.125
-0.014297264 0.72570008 -0.0070811296 1.3052158e-38 308.76669 245.56668
-0.005382271 0.72439474 -0.0060111177 1.3802329e-38 315.76315 244.73685
0.0033945229 0.72251999 -0.0071442025 1.4261508e-38 322.67999 245.64
-0.030718399 0.73000002 -0.0076796003 1.555763e-38 296 246
-0.028030539 0.73000002 -0.0069116401 1.4634952e-38 298.10001 245.40001
